# .PCD v0.7 - Point Cloud Data file format
VERSION 0.7
FIELDS x y z rgb
SIZE 4 4 4 4
TYPE F F F F
COUNT 1 1 1 1
WIDTH 1035
HEIGHT 1
VIEWPOINT 0 0 0 1 0 0 0
POINTS 1035
DATA ascii
0.24242815 0.40262669 1.4580001 1.2050214e-39
-0.80227101 0.41711271 1.4580001 1.7695014e-38
-0.79466504 0.41614485 1.455 1.9170514e-38
-0.78499889 0.41398478 1.4560001 1.9724775e-38
-0.77381223 0.41251132 1.4532001 2.0738958e-38
-0.72174561 0.41497192 1.452 2.1563995e-38
-0.57390285 0.41796485 1.4580001 1.1938615e-39
-0.56793588 0.4170959 1.4532001 6.8116306e-39
-0.55362725 0.41341671 1.454 4.4206861e-39
-0.45581353 0.41438976 1.4538749 1.8417504e-39
0.22523321 0.416343 1.4533334 1.112837e-39
0.23450133 0.41187903 1.4571431 1.112474e-39
-0.80397522 0.42052123 1.4580001 1.6042708e-38
-0.73547035 0.42519605 1.4565001 7.3774132e-39
-0.72430205 0.4247818 1.4580001 1.8613015e-38
-0.71322441 0.42819029 1.4580001 2.0270383e-38
-0.70747268 0.42627305 1.4580001 2.0731709e-38
-0.57390285 0.42052123 1.4580001 2.7550649e-40
-0.46206996 0.42770112 1.452 1.6405749e-38
-0.45687988 0.42376596 1.4528573 5.990181e-39
-0.44599131 0.42304841 1.454 1.0109079e-39
-0.43806157 0.42786416 1.454 1.1607603e-38
-0.11759256 0.42819029 1.4580001 2.3210167e-38
0.20494013 0.42897403 1.452 1.1124754e-39
0.21537897 0.42547691 1.4537143 7.4369852e-40
0.22380249 0.4229233 1.4560001 9.2808418e-40
-0.731929 0.43406573 1.452 1.0701915e-38
-0.72538733 0.43335915 1.4553334 1.1877725e-38
-0.71536982 0.43118846 1.4545715 1.879416e-38
-0.70539784 0.43411404 1.455375 1.6676894e-38
-0.69683576 0.43618178 1.4554287 1.5663134e-38
-0.68376553 0.43687752 1.4566667 4.4160141e-39
-0.67553008 0.43656343 1.457077 1.4552797e-38
-0.66848814 0.43841574 1.4580001 2.1004669e-38
-0.64292455 0.43713757 1.4580001 2.0636613e-38
-0.63434243 0.43512896 1.4580001 2.0268195e-38
-0.62463349 0.43558019 1.457077 1.8979991e-38
-0.61689627 0.4371562 1.4569092 1.7781788e-38
-0.60747278 0.43805477 1.4557501 1.6581434e-38
-0.59243643 0.43649849 1.4580001 7.4717921e-39
-0.58569264 0.43626443 1.4568001 1.0322685e-38
-0.57629418 0.43747225 1.45275 6.9081814e-39
-0.56506604 0.43815011 1.455 1.0225372e-38
-0.5588119 0.43661156 1.452 1.1981409e-38
-0.45952412 0.43151987 1.452 1.5207552e-38
-0.43304789 0.43517035 1.4549999 4.4174421e-39
-0.42858216 0.43878657 1.455 3.3060779e-39
-0.4111492 0.43796206 1.4565001 7.8261062e-39
-0.40376422 0.43549511 1.4575002 8.0108828e-39
-0.396211 0.43774703 1.4545715 6.2606526e-39
-0.38266498 0.43878657 1.455 2.3489284e-38
-0.37471864 0.43883958 1.4545715 2.339779e-38
-0.36735839 0.43878657 1.455 2.3488908e-38
-0.34638679 0.43841574 1.4580001 2.3492528e-38
-0.27505443 0.43873364 1.4554286 2.2748455e-38
-0.2653144 0.4387866 1.455 2.3027207e-38
-0.25474238 0.43846136 1.4553334 2.3395982e-38
-0.24461408 0.43690914 1.4554287 2.3487819e-38
-0.23498803 0.4365485 1.4552001 2.3209803e-38
-0.22528113 0.43736202 1.4573333 2.3026128e-38
-0.21414611 0.43768841 1.4563637 2.2841731e-38
-0.20444041 0.43674657 1.4560001 2.2840655e-38
-0.19571489 0.43567374 1.4547691 2.2748459e-38
-0.18544623 0.43589658 1.4538748 2.2472581e-38
-0.17653964 0.43636 1.454 2.256513e-38
-0.16999795 0.43841574 1.4580001 2.3025042e-38
-0.15465978 0.43841574 1.4580001 2.2839939e-38
-0.14571251 0.43841574 1.4580001 2.3024324e-38
-0.1349393 0.43732017 1.4580001 2.2749181e-38
-0.12456657 0.43698424 1.4562858 2.2841381e-38
-0.1148713 0.43522581 1.4559001 2.2748821e-38
-0.10523532 0.43698424 1.4562858 2.2288186e-38
-0.094455585 0.43717262 1.4560001 2.2843173e-38
-0.084244162 0.43398154 1.4560001 2.2565876e-38
-0.073640585 0.43460757 1.4566667 2.2749907e-38
-0.064393401 0.43682727 1.4558184 2.2748824e-38
-0.055800918 0.4349474 1.4543076 2.2472228e-38
-0.045902707 0.43225932 1.4545001 2.2380035e-38
-0.035715397 0.43240795 1.4549999 2.2196356e-38
-0.026150091 0.43304616 1.4549999 2.2472949e-38
-0.015444529 0.43514347 1.4546666 2.3488542e-38
-0.0055247536 0.43721125 1.454 2.3304516e-38
0.0057434822 0.4370223 1.4555 2.2656631e-38
0.015306599 0.43431956 1.4549999 2.2748469e-38
0.02550092 0.43480963 1.4545 2.2196367e-38
0.035717156 0.43495905 1.4549999 2.2381476e-38
0.046180699 0.43603787 1.4552001 2.2566585e-38
0.055358868 0.43776509 1.455 2.2197448e-38
0.064725429 0.43630841 1.4558572 2.2196729e-38
0.073682085 0.43461353 1.4562858 2.1921588e-38
0.082979135 0.43761569 1.4562 2.1643561e-38
0.19815122 0.43618727 1.452 1.1113936e-39
0.20493712 0.43523946 1.4571431 1.2043151e-39
0.21217787 0.43074664 1.4580001 1.11283e-39
-0.67300123 0.44126454 1.4556001 2.0451168e-38
-0.66398704 0.4426969 1.4552729 2.1004688e-38
-0.6540435 0.44399515 1.4571431 2.1649696e-38
-0.6448732 0.44383439 1.457077 2.1282345e-38
-0.6339457 0.44165587 1.455 2.1005758e-38
-0.62754953 0.44170323 1.452 2.1097232e-38
-0.61481512 0.44133765 1.455 2.1560022e-38
-0.60499239 0.44232619 1.4528573 2.1008285e-38
-0.59565157 0.44243041 1.4565001 1.7515327e-38
-0.58675301 0.44133765 1.455 2.3326215e-38
-0.56220639 0.44467339 1.452 1.9809044e-38
-0.55753899 0.44743136 1.452 1.7780743e-38
-0.54848385 0.44771805 1.455 1.326857e-38
-0.43151987 0.44170323 1.452 1.3643504e-38
-0.42446452 0.44252032 1.454 1.0134633e-38
-0.41642156 0.44141078 1.4544001 1.2980079e-38
-0.40518308 0.44097209 1.4580001 1.3448609e-38
-0.3927041 0.44258541 1.4537143 6.7187273e-39
-0.38464239 0.44399706 1.4524615 1.528028e-38
-0.37466279 0.4434005 1.4519999 2.3489612e-38
-0.36302352 0.44270331 1.4542501 2.2658468e-38
-0.35478768 0.44156584 1.45575 2.2659565e-38
-0.34766495 0.44097209 1.4580001 2.2760405e-38
-0.28368181 0.44439688 1.455 4.2276726e-39
-0.27655983 0.44395119 1.4525454 1.278778e-38
-0.25203815 0.44170323 1.452 2.3487454e-38
-0.24694648 0.44170323 1.452 2.3487819e-38
-0.23421729 0.44170323 1.452 2.3487472e-38
-0.22354631 0.44224769 1.4538001 2.3395268e-38
-0.21491767 0.44256654 1.45275 2.3118685e-38
-0.20748596 0.44170323 1.452 2.2933923e-38
-0.18711925 0.44170323 1.452 2.2011944e-38
-0.17283571 0.44261318 1.455 2.3026129e-38
-0.16565803 0.44335613 1.4561539 2.302541e-38
-0.15565819 0.44400093 1.455375 2.3024675e-38
-0.14578903 0.44246355 1.4552727 2.2655545e-38
-0.13520831 0.44133767 1.455 2.2748459e-38
-0.12729201 0.44170323 1.452 2.2657696e-38
0.057281401 0.44170326 1.452 2.2474731e-38
0.062373079 0.44170323 1.452 2.3026501e-38
0.088194422 0.44097209 1.4580001 2.2656648e-38
0.17642671 0.44883162 1.452 7.4405025e-40
0.18610232 0.44571313 1.454 6.5185322e-40
0.19396366 0.4453952 1.4566667 6.5222036e-40
0.20271936 0.44199464 1.4580001 9.2773105e-40
-0.55217373 0.45119753 1.4580001 1.5846113e-38
-0.54848385 0.45154208 1.455 8.4690331e-39
-0.28131533 0.45188659 1.452 3.4998242e-39
0.159115 0.45825121 1.452 8.3768221e-40
0.16582677 0.45720974 1.4519999 7.4513485e-40
0.1750444 0.45455557 1.4532 7.4405445e-40
0.18320581 0.45375392 1.4580001 7.4405165e-40
0.15564339 0.4666988 1.4519999 4.6926403e-40
0.16571018 0.46525842 1.454 8.3624868e-40
0.17474549 0.46324891 1.4580001 7.4441038e-40
0.18022338 0.46142298 1.4580001 7.4404885e-40
0.13874827 0.47989082 1.452 1.0209847e-39
0.14606756 0.47670853 1.4519999 8.3516828e-40
0.15530209 0.47468928 1.456 7.4405445e-40
0.16561562 0.47274405 1.4580001 5.6073659e-40
0.12678836 0.48739552 1.4535 7.4404885e-40
0.13587371 0.48446792 1.4530001 1.112474e-39
0.14380629 0.48454282 1.4568001 7.4404885e-40
0.11628568 0.49517304 1.4547274 4.6638436e-40
0.12303741 0.49342108 1.4554286 7.4404464e-40
0.039460521 0.50534928 1.452 4.3284736e-39
0.043736022 0.50654763 1.4530001 3.3164993e-39
0.10638298 0.50563061 1.455 3.9618589e-39
0.11097285 0.50256932 1.455 7.3865525e-40
0.018271487 0.51709133 1.454 4.8751846e-39
0.025511527 0.51582873 1.4549999 4.9684466e-39
0.034935866 0.51510662 1.4544001 5.981514e-39
0.045925058 0.51149553 1.455 5.3404577e-39
0.05600848 0.51298678 1.452 5.0638821e-39
0.06007446 0.51510656 1.4580001 5.510368e-40
0.096944429 0.51659775 1.455 9.3956207e-39
0.10254195 0.51354969 1.4560001 4.9760066e-39
0.0063646003 0.52529162 1.452 5.984744e-39
0.01145628 0.5218972 1.452 6.6301274e-39
0.087831482 0.52571595 1.452 8.1970775e-39
0.095011383 0.52192354 1.4580001 8.7491583e-39
-0.0012729199 0.53080761 1.452 0
0.0038225173 0.53502542 1.4545715 0
0.086740032 0.53444755 1.455 9.9448134e-39
0.0089104399 0.54099101 1.452 0
0.085285641 0.54099101 1.452 9.9451735e-39
-0.61453438 -0.5750978 1.4640001 1.8712099e-38
-0.62246841 -0.56343019 1.4640001 1.8528434e-38
-0.61630785 -0.56479919 1.4640002 1.8804656e-38
-0.61476779 -0.5552628 1.4640001 1.8896499e-38
-0.6173346 -0.54417861 1.464 1.8988697e-38
-0.63401937 -0.53006071 1.4640001 1.8896497e-38
-0.62452191 -0.53108746 1.4640001 1.9173799e-38
-0.61887479 -0.53570789 1.4640001 1.9173802e-38
-0.63324922 -0.52518368 1.464 1.8712466e-38
-0.62657541 -0.52441353 1.4640001 1.9265989e-38
-0.64642596 -0.51294822 1.4640001 1.926528e-38
-0.63366938 -0.51652628 1.4640001 1.9081243e-38
-0.62760216 -0.51594287 1.4640001 1.945002e-38
-0.63376266 -0.50576097 1.4640002 1.908125e-38
-0.62589091 -0.50396413 1.4640001 1.9173084e-38
-0.64392024 -0.49485782 1.4640002 1.944967e-38
-0.63410497 -0.49566454 1.4640002 1.9541867e-38
-0.62599784 -0.49637038 1.464 1.9264921e-38
-0.65198755 -0.48514029 1.464 1.9542585e-38
-0.64593709 -0.48679048 1.4640001 1.9542584e-38
-0.66097158 -0.47358936 1.4640001 1.972734e-38
-0.65476835 -0.47465894 1.4640001 1.9542581e-38
-0.6468538 -0.47743967 1.4640001 1.9634424e-38
-0.66097158 -0.46332183 1.4640001 1.9819897e-38
-0.65607125 -0.46472195 1.4640001 1.9726617e-38
-0.64428687 -0.46383521 1.464 1.9818453e-38
-0.66317177 -0.45232093 1.4640001 2.0003206e-38
-0.65635121 -0.45716134 1.4640001 1.9910292e-38
-0.67175251 -0.44381356 1.4640001 2.0002843e-38
-0.66571039 -0.4443664 1.4640002 2.0002842e-38
-0.67295045 -0.43423057 1.4640001 2.0095756e-38
-0.66803056 -0.43572786 1.4640001 2.0095755e-38
-0.68407345 -0.42225179 1.4640001 2.0279074e-38
-0.67431945 -0.42687216 1.464 2.0186514e-38
-0.66713214 -0.42635876 1.4640001 2.0094323e-38
-0.69241589 -0.41455111 1.4640001 2.0095401e-38
-0.68561369 -0.41609129 1.4640002 2.0186876e-38
-0.67893976 -0.41711801 1.4640001 2.0002834e-38
-0.69177413 -0.40941736 1.4640001 2.0094677e-38
-0.68590701 -0.40520033 1.4640002 2.0278707e-38
-0.67637295 -0.40300012 1.4640001 2.0279426e-38
-0.68689704 -0.39452943 1.464 2.0371627e-38
-0.67842638 -0.39504287 1.4640001 2.0371619e-38
-0.69177413 -0.38118169 1.4640001 2.0832594e-38
-0.68561369 -0.38528875 1.4640002 2.0463823e-38
-0.67893976 -0.38631544 1.4640001 2.0555653e-38
-0.69228756 -0.37450781 1.4640001 2.0555301e-38
-0.68792379 -0.37476447 1.464 2.0556019e-38
-0.69605237 -0.36435437 1.464 2.0556742e-38
-0.68835163 -0.36749166 1.4640001 2.0464539e-38
-0.70358181 -0.35243261 1.4640001 2.0648934e-38
-0.69617456 -0.35367939 1.4640001 2.055674e-38
-0.71230924 -0.34267849 1.4640001 2.0648574e-38
-0.70717543 -0.34438974 1.464 2.0648933e-38
-0.71295089 -0.3343361 1.4640001 2.0648936e-38
-0.7084589 -0.33497787 1.4640001 2.0556739e-38
-0.71359265 -0.32599375 1.464 2.0833326e-38
-0.70743215 -0.32522368 1.464 2.0741129e-38
-0.72000986 -0.31700969 1.4640001 2.0648932e-38
-0.7143628 -0.31623963 1.464 2.0833686e-38
-0.70717543 -0.31729487 1.464 2.0741131e-38
-0.73027736 -0.30417529 1.4640001 2.1016638e-38
-0.72321844 -0.30438918 1.4640001 2.0925161e-38
-0.71487612 -0.30545872 1.4640001 2.1016638e-38
-0.70974231 -0.3080256 1.4640001 2.0833684e-38
-0.7238602 -0.2951912 1.4640002 2.0832971e-38
-0.71615952 -0.29647464 1.4640001 2.0925524e-38
-0.73113298 -0.28192899 1.4640001 2.0649299e-38
-0.72411686 -0.28518036 1.4640002 2.1016637e-38
-0.71744293 -0.28749055 1.4640001 2.0833326e-38
-0.73156083 -0.27465618 1.464 2.0924805e-38
-0.72771049 -0.27465618 1.4640001 2.1017354e-38
-0.73323917 -0.26448739 1.4640002 2.0925163e-38
-0.72771049 -0.26438862 1.4640001 2.1569808e-38
-0.73323917 -0.25441727 1.4640002 2.1017357e-38
-0.72771049 -0.25797144 1.4640001 2.1754559e-38
-0.75081241 -0.24128672 1.4640001 2.1201387e-38
-0.74490857 -0.24205677 1.464 2.1109197e-38
-0.73383152 -0.24336 1.4640002 2.1201389e-38
-0.75209588 -0.23486952 1.4640001 2.1108834e-38
-0.7443952 -0.23486951 1.4640001 2.1017357e-38
-0.73797798 -0.2374364 1.4640001 2.1293578e-38
-0.75209588 -0.22588544 1.464 1.9544393e-38
-0.74528384 -0.22618164 1.4640002 1.8345501e-38
-0.75209588 -0.21561791 1.464 1.9727338e-38
-0.74670547 -0.21792813 1.4640001 1.9266369e-38
-0.75227922 -0.20590045 1.4640001 2.1385063e-38
-0.75741297 -0.19526622 1.4640001 2.0924448e-38
-0.76107991 -0.18481536 1.4640001 2.0648581e-38
-0.7579996 -0.18558542 1.4640001 2.0648216e-38
-0.76107997 -0.17583129 1.4640001 2.1108831e-38
-0.75851309 -0.17583129 1.4640001 2.1201382e-38
-0.76193559 -0.1634247 1.4640001 2.1016997e-38
-0.77134746 -0.15016247 1.4640001 2.1016991e-38
-0.76434684 -0.15436283 1.4640001 2.0832966e-38
-0.79188246 -0.14246184 1.4640001 2.0924442e-38
-0.77434218 -0.14417309 1.4640001 2.1017357e-38
-0.76878053 -0.14631216 1.4640001 2.1109911e-38
-0.79188246 -0.13219433 1.4640001 2.1110636e-38
-0.78646356 -0.13561684 1.464 2.1016995e-38
-0.77776468 -0.13989496 1.4640001 2.1201388e-38
-0.79188246 -0.12577713 1.4640001 2.083405e-38
-0.78674871 -0.12962744 1.4640001 2.0924442e-38
-0.79188246 -0.1155096 1.4640001 2.0925521e-38
-0.78931558 -0.1155096 1.4640001 2.1109551e-38
-0.79298264 -0.10469203 1.4640001 2.0834045e-38
-0.78931558 -0.10780896 1.4640001 2.0834405e-38
-0.79701626 -0.096258 1.4640001 2.0742209e-38
-0.80471689 -0.085990481 1.4640001 2.0833331e-38
-0.79958314 -0.087273926 1.4640001 2.0834045e-38
-0.79444933 -0.060321681 1.4640001 2.0741846e-38
-0.80446017 -0.053134412 1.464 2.0741487e-38
-0.79598945 -0.054161176 1.4640002 2.0833684e-38
-0.80728376 -0.047487281 1.4640001 2.0741499e-38
-0.79701626 -0.045562118 1.4640001 2.1202105e-38
-0.80215001 -0.0385032 1.4640001 2.0741134e-38
-0.79616064 -0.026952242 1.4640001 1.5209706e-38
-0.78674877 -0.026952242 1.4640001 1.6038763e-38
-0.77305877 -0.027380055 1.4640001 1.5576008e-38
-0.76792496 -0.0256688 1.4640001 1.1429025e-38
-0.77391434 -0.015829094 1.4640001 1.09673e-38
-0.76878053 -0.0192516 1.4640001 1.0042114e-38
-0.60193336 -0.01155096 1.4640001 3.0388236e-39
-0.59851086 -0.01411784 1.4640001 5.2536978e-39
-0.57883143 -0.0128344 1.4640001 3.6795365e-39
-0.80215001 -0.0064172 1.4640001 1.2628669e-38
-0.60385853 -0.0038503204 1.464 5.3451787e-39
-0.59826642 -0.0053171082 1.4640001 7.0979579e-39
-0.57369769 -0.0056838063 1.4640001 4.7894826e-39
-0.56856394 -0.00128344 1.4640001 4.5139705e-39
-0.60450023 0.00128344 1.4640001 5.8972791e-39
-0.59936649 0.00128344 1.4640001 4.978564e-39
-0.57113081 0.0025668801 1.4640001 3.9618799e-39
-0.56599706 0.0056838053 1.4640001 3.6849343e-39
-0.57391155 0.016043 1.4640001 7.097616e-39
-0.56599712 0.01540128 1.4640001 2.3963857e-39
-0.57241428 0.02181848 1.4640001 1.9911009e-38
-0.56599706 0.023101922 1.4640001 1.7790864e-38
0.25711581 0.34695661 1.4640001 5.7153948e-39
0.26424602 0.34610096 1.464 5.4431337e-39
0.27337271 0.34781227 1.4640001 4.8960794e-39
0.25797144 0.35037911 1.4640001 6.0885017e-39
0.26438865 0.35243264 1.464 5.0790357e-39
0.27593958 0.35230428 1.464 3.8830135e-39
0.27593958 0.36578041 1.4640001 2.2173867e-39
-0.46845558 0.37861478 1.4640001 6.9138889e-39
0.26738334 0.37775916 1.4640001 1.5727333e-39
0.27208927 0.37348104 1.4640001 1.6649346e-39
0.25797144 0.38631544 1.4640001 1.4805349e-39
0.26438862 0.38118169 1.4640001 1.5727305e-39
-0.76364678 0.39914984 1.4640001 1.8244198e-38
-0.75337929 0.39658296 1.4640001 1.6219913e-38
-0.733486 0.3985081 1.4640001 2.3225711e-38
-0.46075496 0.39529952 1.4640001 4.3281345e-39
-0.45818809 0.39658296 1.4640001 2.7608088e-39
0.24770392 0.39914984 1.4640001 1.2046739e-39
0.25283772 0.39401609 1.4640001 1.7553281e-39
-0.77134746 0.40685049 1.4640001 2.0734955e-38
-0.76878053 0.40300015 1.4640001 1.9625007e-38
-0.72771049 0.40171671 1.4640001 2.2211549e-38
-0.46075496 0.40428358 1.4640001 3.4097908e-39
-0.45510784 0.40556702 1.464 2.7629724e-39
-0.44663712 0.40941736 1.4640001 1.0109079e-39
0.24513704 0.40513921 1.4640001 1.2046641e-39
-0.80471689 0.41583455 1.4640001 1.8059839e-38
-0.7957328 0.41455111 1.4640001 1.9262365e-38
-0.7246303 0.41660461 1.4640001 1.9443504e-38
-0.57626456 0.41840142 1.4640001 1.6555529e-39
-0.55572951 0.41455111 1.4640001 4.515376e-39
-0.45219871 0.41540673 1.464 9.1835496e-40
-0.44792056 0.41583458 1.4640001 8.268782e-40
0.23358607 0.41840142 1.4640001 1.0206357e-39
0.24128672 0.41326767 1.4640001 8.3768221e-40
-0.74054486 0.42995238 1.4640001 1.0789485e-38
-0.73335761 0.42943904 1.4640001 1.3816399e-38
-0.72289753 0.42706466 1.464 1.5017714e-38
-0.71487606 0.42481866 1.464 1.7597409e-38
-0.7050035 0.42580587 1.4640002 2.0640237e-38
-0.69861925 0.4269577 1.4640001 1.7873996e-38
-0.63016903 0.42995238 1.4640001 1.50217e-38
-0.62554866 0.42892566 1.4640001 1.1416335e-38
-0.61733472 0.42995238 1.4640001 1.8421739e-38
-0.59294927 0.42995238 1.4640001 1.5198975e-38
-0.58524865 0.42995238 1.4640001 1.4282253e-38
-0.57498115 0.42567426 1.4640001 1.5659883e-38
-0.44432694 0.42430526 1.4640001 2.6689859e-39
-0.4363696 0.42995238 1.4640001 1.0955384e-38
-0.40556702 0.42995238 1.4640001 6.2573694e-39
-0.20278352 0.42995238 1.4640001 2.2748082e-38
-0.19508287 0.42995238 1.4640001 2.2748804e-38
-0.1860988 0.42995238 1.4640001 2.3395607e-38
-0.13604464 0.42995238 1.4640001 2.3117588e-38
-0.12492149 0.42909679 1.4640001 2.2749178e-38
-0.11465397 0.42824113 1.4640001 2.2841019e-38
-0.1090924 0.42995238 1.4640001 2.2286768e-38
-0.092407674 0.42995238 1.4640001 2.2564078e-38
-0.084707044 0.42995238 1.4640001 2.3025049e-38
-0.075722963 0.42995238 1.4640001 2.321087e-38
-0.061605122 0.42995238 1.4640001 2.2748831e-38
-0.053354435 0.42885232 1.4640001 2.2656259e-38
-0.045241259 0.42770636 1.464 2.2565132e-38
-0.035936322 0.42866895 1.464 2.2474382e-38
-0.026438866 0.42943904 1.4640001 2.2380037e-38
-0.014973467 0.42995238 1.4640001 2.3118695e-38
0.0047059469 0.42995238 1.4640001 2.2564784e-38
0.01540128 0.42866898 1.464 2.2198525e-38
0.0256688 0.42995238 1.4640001 2.2934292e-38
0.035936318 0.42995238 1.4640001 2.2750261e-38
0.0449204 0.42995238 1.4640001 2.2842816e-38
0.0577548 0.42995238 1.4640001 2.3026851e-38
0.065027624 0.42909676 1.4640001 2.2289292e-38
0.074439518 0.42866895 1.464 2.173791e-38
0.080856718 0.42995238 1.4640001 2.201378e-38
0.224602 0.42866895 1.4640001 8.3624868e-40
-0.73541111 0.43435279 1.4640001 6.1702885e-39
-0.72000986 0.43251929 1.4640001 1.9439178e-38
-0.70332515 0.43251929 1.4640001 1.6766182e-38
-0.69562453 0.43508616 1.464 1.6120863e-38
-0.68150663 0.43251929 1.4640001 9.1835496e-40
-0.67380607 0.4339861 1.4640001 1.3539389e-38
-0.66524971 0.43594182 1.464 2.0081991e-38
-0.65455443 0.43636963 1.464 2.0822082e-38
-0.64608371 0.43559954 1.4640001 2.0268188e-38
-0.63273597 0.43251929 1.4640001 1.9167283e-38
-0.62246841 0.43251929 1.4640001 8.7448199e-39
-0.61605126 0.43380272 1.464 1.8046853e-38
-0.60663927 0.43594179 1.4640001 2.0820274e-38
-0.59594405 0.43465835 1.4640001 1.5755674e-38
-0.58469856 0.43361941 1.4640001 1.4091481e-38
-0.57818973 0.43572789 1.4640001 2.3219956e-38
-0.43251929 0.43508616 1.4640001 8.5514631e-39
-0.41326767 0.43508616 1.4640001 7.0921565e-39
-0.40813392 0.43380272 1.4640001 7.8286734e-39
-0.39529952 0.43540704 1.464 9.0225194e-39
-0.38426194 0.43713966 1.4640001 2.2200693e-38
-0.37553453 0.43713966 1.4640001 2.2568024e-38
-0.36706382 0.43765303 1.4640001 2.3487465e-38
-0.34267849 0.43765303 1.4640001 2.3493991e-38
-0.33626127 0.43765303 1.4640001 2.3405419e-38
-0.28107336 0.43765303 1.4640001 2.3487845e-38
-0.27465618 0.43765303 1.4640001 2.3027211e-38
-0.263533 0.43679744 1.4640001 2.3303075e-38
-0.25437781 0.43611294 1.4640001 2.3488538e-38
-0.24462366 0.43303266 1.4640001 2.3395981e-38
-0.23486952 0.43337494 1.4640001 2.3302353e-38
-0.22588544 0.43508616 1.4640001 2.3026125e-38
-0.21561791 0.43380275 1.464 2.2564423e-38
-0.20620605 0.43337488 1.4640001 2.2564054e-38
-0.19508287 0.43251929 1.4640001 2.2472587e-38
-0.18481536 0.43251929 1.4640001 2.3026115e-38
-0.17326441 0.43444443 1.464 2.2932841e-38
-0.16428031 0.43508622 1.4640001 2.2749163e-38
-0.15412948 0.43531951 1.4640001 2.2933209e-38
-0.14502871 0.43540701 1.464 2.3024665e-38
-0.13647245 0.43423054 1.464 2.2932844e-38
-0.12706058 0.43380269 1.4640001 2.2656628e-38
-0.10395865 0.43380272 1.4640001 2.2103073e-38
-0.095524602 0.43361941 1.4640001 2.2565136e-38
-0.087273926 0.43251929 1.4640001 2.2840661e-38
-0.074439526 0.43251929 1.4640001 2.284246e-38
-0.065027624 0.43337488 1.4640001 2.2657707e-38
-0.056471359 0.43251929 1.4640001 2.2565864e-38
-0.02181848 0.43251929 1.4640001 2.2287824e-38
-0.014545653 0.43337494 1.4640001 2.3121936e-38
-0.004620384 0.43508616 1.464 2.2842467e-38
0.0045837145 0.43361938 1.4640001 2.237968e-38
0.01155096 0.43251929 1.4640001 2.2198172e-38
0.0256688 0.43251929 1.4640001 2.2565158e-38
0.035936318 0.43251929 1.4640001 2.2565877e-38
0.0449204 0.43251929 1.4640001 2.2567304e-38
0.054454524 0.43361941 1.4640001 2.2566595e-38
0.062375188 0.43354604 1.4640001 2.219637e-38
0.0770064 0.43251929 1.4640001 2.2106335e-38
0.085705273 0.43451577 1.464 2.201162e-38
0.091765955 0.43508616 1.4640001 2.2380756e-38
0.20920072 0.43765303 1.4640001 2.0308374e-39
0.21497621 0.43444446 1.4640001 1.2965024e-39
-0.73541111 0.44021991 1.4640001 1.4931707e-38
-0.66456527 0.44073328 1.4640001 2.137166e-38
-0.65583789 0.44021994 1.4640001 2.1466009e-38
-0.60321683 0.44278678 1.4640001 1.3361433e-38
-0.59936649 0.44150335 1.4640001 4.1501752e-39
-0.42481863 0.44021994 1.4640001 4.4999393e-39
-0.41840142 0.44021991 1.4640001 2.5713939e-39
-0.39144918 0.44150335 1.4640001 1.7033057e-38
-0.38888231 0.44021991 1.4640001 2.3492891e-38
-0.37861478 0.44021991 1.4640001 2.3489264e-38
-0.36321351 0.44021994 1.4640001 2.3394917e-38
-0.35551292 0.44021994 1.4640001 2.3489274e-38
-0.34781224 0.44021991 1.4640001 2.3494705e-38
-0.28492367 0.44150335 1.4640001 8.7311881e-39
-0.16428033 0.44021991 1.4640001 2.2933218e-38
0.091124237 0.44150335 1.4640001 2.2103472e-38
0.20663385 0.44492587 1.4640001 7.4369852e-40
0.2117676 0.44150335 1.4640001 1.2950674e-39
0.18661217 0.45716134 1.4640001 7.4404745e-40
0.19453284 0.45305431 1.4640001 6.5150429e-40
0.20150007 0.45048743 1.4640001 6.5150289e-40
0.17711473 0.46845558 1.4640001 7.4404885e-40
0.1840453 0.46280846 1.4640001 8.3552701e-40
0.16428033 0.47872311 1.4640001 8.3588995e-40
0.1732644 0.47294763 1.4640001 7.4404885e-40
0.1475956 0.48642376 1.4640001 8.3624448e-40
0.1540128 0.48257342 1.4640001 7.4369712e-40
0.1286007 0.49720463 1.4640001 4.6746616e-40
0.13283604 0.49348268 1.4640001 6.5150289e-40
0.037861481 0.50631708 1.4640001 4.325601e-39
0.11525291 0.50593203 1.4640001 8.3444241e-40
0.12492149 0.50268072 1.4640001 5.5965759e-40
0.02951912 0.51465946 1.4640001 3.9535899e-39
0.034652881 0.513376 1.4640001 5.1542686e-39
0.0577548 0.51722634 1.4640001 5.0643179e-39
0.10738115 0.51808202 1.4640001 5.5856738e-40
0.11165928 0.51465952 1.4640001 6.5257208e-40
0.09454675 0.52578259 1.4640001 9.2097959e-39
0.1026752 0.52236009 1.4640001 3.6859839e-39
0.00128344 0.53262758 1.4640001 0
0.088557363 0.53776133 1.4640001 7.9186802e-39
0.091979861 0.53091633 1.4640001 8.9335692e-39
-0.6137526 -0.58267647 1.4770001 1.8620978e-38
-0.6059835 -0.58267659 1.4770001 1.8620275e-38
-0.59821451 -0.58267647 1.4770001 1.8713901e-38
-0.61226267 -0.57508177 1.4728001 1.8712821e-38
-0.6061936 -0.57467133 1.4765881 1.8620269e-38
-0.59821451 -0.57749712 1.4770001 1.8529155e-38
-0.61264801 -0.56470829 1.4700001 1.8897213e-38
-0.60663629 -0.56445152 1.4747893 1.8896494e-38
-0.61264801 -0.55336779 1.4700001 1.8897215e-38
-0.60890055 -0.55417371 1.4746668 1.8897216e-38
-0.6142031 -0.54490685 1.4729168 1.9264918e-38
-0.60976374 -0.54684657 1.4746668 1.9357475e-38
-0.62118781 -0.53374273 1.4756001 1.9449309e-38
-0.61700618 -0.53713685 1.4738184 1.9172723e-38
-0.62400699 -0.52534366 1.4711668 1.9449668e-38
-0.61602837 -0.5256598 1.4726924 1.9449664e-38
-0.62632 -0.51604712 1.4740834 1.9449665e-38
-0.63017428 -0.50903648 1.47 1.8712826e-38
-0.62518525 -0.50601292 1.4730002 1.9541505e-38
-0.64071405 -0.4908689 1.4735 1.9726261e-38
-0.63522327 -0.4915148 1.4735001 1.9081616e-38
-0.62640792 -0.49609274 1.47175 1.9449667e-38
-0.64388686 -0.48493686 1.4722103 1.9726259e-38
-0.6364122 -0.48750603 1.4770001 1.9358554e-38
-0.6520822 -0.47295293 1.4700001 1.9819171e-38
-0.64424533 -0.47368214 1.4727221 1.9726975e-38
-0.63705963 -0.47132054 1.4770001 1.9818809e-38
-0.65344542 -0.46369267 1.4710002 1.9818456e-38
-0.64509666 -0.4636845 1.4746668 2.0094324e-38
-0.63705963 -0.46743605 1.4770001 2.018724e-38
-0.66110307 -0.4536224 1.47 1.9725905e-38
-0.65464526 -0.45454007 1.4732667 2.0186158e-38
-0.64695287 -0.4565759 1.4730002 2.0093964e-38
-0.66208631 -0.44535699 1.4715557 2.0278711e-38
-0.65563011 -0.44523099 1.4747893 2.027871e-38
-0.64871317 -0.44153929 1.4770001 2.0554934e-38
-0.6643526 -0.43529251 1.4708234 2.0278355e-38
-0.65537453 -0.43681559 1.4752501 2.0094683e-38
-0.64741832 -0.43765476 1.4770001 2.037055e-38
-0.67527878 -0.42269358 1.4700001 2.0003208e-38
-0.66439545 -0.42455369 1.4708749 2.0462744e-38
-0.65852571 -0.42398232 1.47 2.0278711e-38
-0.683011 -0.41238397 1.47 2.027871e-38
-0.67517537 -0.41428909 1.4717498 2.0279071e-38
-0.66629547 -0.41558668 1.4741175 2.0554933e-38
-0.683011 -0.4085179 1.47 2.0647483e-38
-0.675089 -0.40429753 1.4746667 2.0371624e-38
-0.66943055 -0.40139937 1.4770001 2.0278713e-38
-0.67665166 -0.39477617 1.473 2.0371269e-38
-0.68378419 -0.38119745 1.4700001 2.0464179e-38
-0.67835188 -0.38663116 1.473889 2.04649e-38
-0.68410707 -0.37516275 1.4721539 2.0832601e-38
-0.69549042 -0.36446279 1.4750001 2.0556383e-38
-0.6876651 -0.36797664 1.4728001 2.064857e-38
-0.69791698 -0.35478523 1.4770001 2.1201388e-38
-0.70446324 -0.34492108 1.4717501 2.0649293e-38
-0.69825202 -0.34525138 1.4728001 2.0832968e-38
-0.70392704 -0.33452612 1.4733331 2.0832964e-38
-0.69810313 -0.33568797 1.4746668 2.0832605e-38
-0.7037918 -0.32530779 1.4735001 2.0832971e-38
-0.71007371 -0.3131541 1.47 2.1018073e-38
-0.70598584 -0.31546339 1.4743078 2.0834045e-38
-0.71108449 -0.30379263 1.4721001 2.1017354e-38
-0.70749629 -0.30799931 1.47 2.0833679e-38
-0.71317118 -0.29513991 1.4717499 2.0833326e-38
-0.721753 -0.28224251 1.4728001 2.1109194e-38
-0.71595955 -0.28660688 1.4734999 2.0925164e-38
-0.7315827 -0.27062085 1.4770001 2.1201029e-38
-0.72548974 -0.27564475 1.4731109 2.1109191e-38
-0.71863437 -0.27838987 1.4770001 2.1109555e-38
-0.73128617 -0.26458853 1.4746668 2.1201377e-38
-0.7259717 -0.26328343 1.4770001 2.0925164e-38
-0.73104882 -0.25383955 1.4728001 2.1293225e-38
-0.72544253 -0.25638586 1.4762224 2.1201387e-38
-0.73176134 -0.24564463 1.473889 2.1201029e-38
-0.7410025 -0.2332547 1.47 2.0188322e-38
-0.73542893 -0.23482262 1.4717499 2.0464184e-38
-0.74292701 -0.22414051 1.4728001 1.9081623e-38
-0.73689824 -0.22620367 1.4744548 2.0464554e-38
-0.75131208 -0.21134681 1.47 2.1938223e-38
-0.74552262 -0.21460925 1.4733156 2.1293941e-38
-0.73935175 -0.2188274 1.4770001 2.1386862e-38
-0.75283271 -0.20411511 1.4746668 2.0740771e-38
-0.74884719 -0.20760548 1.4770001 2.0833682e-38
-0.76006913 -0.19293067 1.4770001 2.046383e-38
-0.75629318 -0.19516018 1.4743078 2.0647499e-38
-0.76006913 -0.18516164 1.4770001 2.1109192e-38
-0.75625831 -0.18468688 1.4750911 2.1109192e-38
-0.74971044 -0.18257196 1.4770001 2.1569812e-38
-0.76045728 -0.17589374 1.4752501 2.1293222e-38
-0.75616819 -0.17673743 1.4748462 2.1108832e-38
-0.74971044 -0.17998229 1.4770001 2.1294304e-38
-0.76350027 -0.1656386 1.4761251 2.1201388e-38
-0.76353508 -0.15431263 1.4742001 2.1201387e-38
-0.77383059 -0.14143892 1.4711668 2.1017355e-38
-0.76468867 -0.14468257 1.4714735 2.1017357e-38
-0.7925505 -0.13015869 1.47 2.1108834e-38
-0.78467649 -0.13357131 1.4707001 2.1017713e-38
-0.77498245 -0.13467038 1.4713998 2.0925517e-38
-0.76413631 -0.13354 1.4717499 2.1016998e-38
-0.79219919 -0.12580013 1.47175 2.101807e-38
-0.78512967 -0.12470029 1.4744209 2.1018077e-38
-0.77299637 -0.12477165 1.4743078 2.1016999e-38
-0.76556426 -0.12415987 1.4764616 2.1108834e-38
-0.78496206 -0.11511552 1.4727999 2.092588e-38
-0.77452713 -0.11441992 1.4760001 2.1016638e-38
-0.76689065 -0.11812224 1.4742001 2.1016999e-38
-0.79247689 -0.10342329 1.4746668 2.0833686e-38
-0.78562397 -0.10594847 1.474941 2.0833328e-38
-0.77560711 -0.10488177 1.4770001 2.1016999e-38
-0.80028272 -0.092786402 1.47 2.0742568e-38
-0.79445636 -0.095422268 1.4740524 2.092624e-38
-0.78467101 -0.095817916 1.4769999 2.1017716e-38
-0.77819681 -0.095817909 1.4770001 2.0924802e-38
-0.81059229 -0.082476795 1.47 2.0741853e-38
-0.80337566 -0.083507761 1.4700001 2.0833687e-38
-0.79499692 -0.085316539 1.4745498 2.0926237e-38
-0.78522599 -0.085829176 1.477 2.0834049e-38
-0.77819681 -0.08804889 1.4770001 2.1017355e-38
-0.81279099 -0.074492119 1.4760002 2.0557103e-38
-0.80414176 -0.075122714 1.4716154 2.0833328e-38
-0.7946195 -0.074938208 1.4738498 2.0834045e-38
-0.78648382 -0.075618468 1.4770001 2.0834045e-38
-0.81279099 -0.065255567 1.4760002 2.0557105e-38
-0.80414176 -0.064209841 1.4716154 2.0649299e-38
-0.79445648 -0.064817093 1.4740524 2.0742202e-38
-0.78504097 -0.064186908 1.477 2.0741849e-38
-0.81059229 -0.057991501 1.47 2.0649653e-38
-0.80801487 -0.057991501 1.47 2.0648932e-38
-0.79268086 -0.053986616 1.4743078 2.1017714e-38
-0.78633583 -0.056047931 1.4770001 2.111027e-38
-0.80196011 -0.040935658 1.4746668 2.1201745e-38
-0.79539943 -0.04618302 1.4735001 2.0925873e-38
-0.80254638 -0.035730403 1.4731113 1.9910651e-38
-0.79537487 -0.032332562 1.4752501 1.493064e-38
-0.78432387 -0.034568723 1.4760002 1.5579577e-38
-0.77468795 -0.034348153 1.4728001 1.4842008e-38
-0.76441205 -0.033360764 1.4749001 1.797092e-38
-0.80157137 -0.029640099 1.47 1.5763616e-38
-0.79512787 -0.029640099 1.47 1.38268e-38
-0.78610694 -0.029640099 1.47 1.4746222e-38
-0.7796635 -0.029640099 1.47 1.6774522e-38
-0.76430976 -0.025749134 1.4725788 1.0783988e-38
-0.75904429 -0.0283514 1.47 1.1703425e-38
-0.79632455 -0.011653529 1.4770001 1.1429734e-38
-0.78596586 -0.011653529 1.4770001 1.2444262e-38
-0.77505791 -0.01550122 1.4735 1.1243163e-38
-0.76798952 -0.019361183 1.4723333 9.8577255e-39
-0.6069777 -0.0115983 1.47 2.4856568e-39
-0.81230247 -0.0021519247 1.4746668 1.2446438e-38
-0.80766356 -0.0058221621 1.4752501 1.1983295e-38
-0.6150474 -0.0064741834 1.4770001 9.0308964e-39
-0.60826641 -0.0077322004 1.47 5.6210608e-39
-0.57246876 -0.0069675716 1.4714001 4.6958478e-39
-0.56445062 -0.0038661005 1.4700001 4.6058186e-39
-0.55672765 -0.0030079894 1.4711668 4.4207099e-39
-0.56316191 0.004334718 1.4700003 4.1455481e-39
-0.55562484 0.0054252231 1.4732667 4.2377494e-39
-0.5618732 0.0154644 1.4700001 1.933237e-39
-0.55561954 0.015506973 1.4739374 2.394927e-39
-0.56161547 0.023969818 1.4700001 1.4106994e-38
-0.55611551 0.024572745 1.4752501 1.0047173e-38
0.26933831 0.33763939 1.47 4.2384921e-39
0.27450362 0.33726245 1.4740002 5.3462619e-39
0.28097954 0.33795238 1.4770001 6.4572884e-39
0.26697263 0.34263361 1.4711668 4.9792675e-39
0.27624425 0.34419814 1.4705001 5.2630654e-39
0.28525871 0.34479666 1.4764616 4.9868401e-39
0.29133826 0.34572142 1.4770001 4.5237081e-39
0.27964789 0.35954729 1.47 2.6787137e-39
0.28571093 0.35508388 1.4746668 2.9571069e-39
0.29133824 0.35219556 1.4770001 3.0478662e-39
0.27964789 0.36470211 1.47 2.4943239e-39
0.28541899 0.36458904 1.4770001 2.034059e-39
0.27675599 0.37610555 1.47175 1.7571302e-39
0.28162697 0.3735604 1.4770001 1.6649318e-39
-0.47037551 0.38403261 1.47 8.568367e-39
-0.46770757 0.38449436 1.47175 5.251544e-39
-0.43894961 0.38974583 1.4770001 2.8537233e-39
0.26572013 0.38657317 1.4728001 1.4805363e-39
0.27288681 0.38346648 1.4752501 1.5727347e-39
-0.73584771 0.39820829 1.47 2.3501587e-38
-0.46351963 0.39483556 1.4728001 4.4210953e-39
-0.45676616 0.39687401 1.4760002 2.7633297e-39
-0.44536057 0.39517772 1.4764616 2.8540918e-39
-0.43635994 0.39557257 1.4770001 2.8544464e-39
0.25645131 0.3956309 1.47 1.5723732e-39
0.26155698 0.39363033 1.4770001 1.3890539e-39
-0.77487487 0.4039993 1.4723334 1.8430048e-38
-0.4600659 0.40078568 1.47 3.0388236e-39
-0.45401087 0.40238553 1.4721001 3.131385e-39
-0.44527003 0.4042047 1.4722271 2.0250542e-39
-0.43532279 0.40425548 1.4765881 1.0112667e-39
-0.42859095 0.40442067 1.4770001 8.2651947e-40
0.2474304 0.40722919 1.47 1.2965038e-39
0.25382835 0.40409425 1.4740002 1.5716515e-39
-0.81315744 0.41693741 1.4770001 1.8888131e-38
-0.80438691 0.41497612 1.4728001 1.8984314e-38
-0.79761934 0.41564256 1.4770001 1.9263436e-38
-0.78208137 0.41434771 1.4770001 2.119811e-38
-0.72668976 0.41432524 1.4723334 1.16097e-38
-0.5812037 0.4188275 1.47 1.7691305e-38
-0.57862628 0.4188275 1.47 1.2436176e-38
-0.56375593 0.41679993 1.4756001 3.9625778e-39
-0.55807459 0.41564256 1.4770001 4.6969128e-39
-0.44409117 0.41529077 1.4711668 7.350427e-40
-0.4366686 0.41259813 1.4763001 1.0101905e-39
-0.39363033 0.41175807 1.4770001 1.269852e-38
0.2384095 0.4188275 1.47 1.0206343e-39
0.24651058 0.41533706 1.473889 9.2915757e-40
0.25249314 0.41046321 1.4770001 1.4805349e-39
-0.72502631 0.42363745 1.4742001 1.5108485e-38
-0.7148419 0.42115504 1.4730002 1.8884531e-38
-0.70443928 0.42197663 1.4735001 2.1468564e-38
-0.6973474 0.4260208 1.4738184 1.68613e-38
-0.63249034 0.42725807 1.4742001 1.7315014e-38
-0.6236648 0.42621416 1.4743078 2.1559319e-38
-0.6164276 0.42782941 1.4735001 1.9624633e-38
-0.59350312 0.42900056 1.47175 2.239558e-38
-0.58533728 0.42598745 1.4717501 1.1330649e-38
-0.57733762 0.42913711 1.47 1.8332448e-38
-0.44312009 0.42297959 1.4728001 1.8392211e-39
-0.43816641 0.42717874 1.4743751 6.7197923e-39
-0.41256347 0.42872748 1.47525 1.9712494e-38
-0.40385896 0.42818221 1.4756001 7.083191e-39
-0.39751485 0.4272961 1.4770001 1.418331e-38
-0.38445058 0.42784908 1.4754446 1.2987269e-38
-0.37550265 0.42859092 1.4770001 1.6303743e-38
-0.3638491 0.4279435 1.4770001 2.3397061e-38
-0.35413781 0.42697242 1.4770001 2.3487817e-38
-0.34503913 0.42756277 1.4750911 2.3490702e-38
-0.33406788 0.42859092 1.4770001 2.3493217e-38
-0.32500401 0.42859095 1.4770001 2.3491051e-38
-0.19438332 0.42882505 1.4740002 2.2564043e-38
-0.18504351 0.42854035 1.4735001 2.2749523e-38
-0.17840517 0.42790979 1.4746668 2.2750245e-38
-0.16405457 0.42886406 1.4735001 2.3117592e-38
-0.15469718 0.42877299 1.4746668 2.3209781e-38
-0.14393348 0.42877302 1.4746668 2.3394527e-38
-0.13373432 0.42786887 1.4715557 2.3302332e-38
-0.12497629 0.42660266 1.4735001 2.3210146e-38
-0.11625608 0.4267121 1.4735001 2.3025403e-38
-0.1095395 0.42913711 1.47 2.3024336e-38
-0.093920924 0.4276405 1.4726251 2.2656621e-38
-0.084973544 0.42726716 1.475 2.2840291e-38
-0.074901469 0.42615193 1.4730624 2.2749173e-38
-0.064511709 0.42577258 1.4717499 2.2379319e-38
-0.05458156 0.42592493 1.470778 2.2194923e-38
-0.044510774 0.42513138 1.47175 2.2195267e-38
-0.035777327 0.42476386 1.4719093 2.2472954e-38
-0.025814911 0.42658731 1.4723334 2.2564062e-38
-0.015126008 0.42668685 1.473 2.2380034e-38
-0.0051655392 0.42602497 1.4726249 2.274953e-38
0.0051628537 0.42589882 1.4721874 2.2656978e-38
0.014985126 0.42550483 1.4735001 2.2471864e-38
0.025814909 0.42723268 1.4723334 2.2382556e-38
0.035850883 0.42673957 1.4726924 2.2658427e-38
0.044487331 0.42605296 1.4740001 2.265842e-38
0.054254267 0.42627734 1.4734999 2.247404e-38
0.064154468 0.42529204 1.472 2.2474402e-38
0.07521449 0.42381746 1.472 2.2197088e-38
0.085407875 0.42499095 1.4725788 2.2196734e-38
0.09587267 0.42709503 1.4732308 2.1735398e-38
0.10360458 0.42538071 1.4726251 2.1919794e-38
0.23561043 0.4250631 1.4726251 1.0206343e-39
0.24472412 0.42254838 1.4770001 1.0209875e-39
-0.69544142 0.43465272 1.4756001 1.5381856e-38
-0.68431443 0.43283874 1.4756001 8.2881998e-39
-0.67506403 0.43239975 1.4723333 1.6124394e-38
-0.66536272 0.43326017 1.4708751 2.1377814e-38
-0.65532368 0.43377367 1.4731113 1.8149504e-38
-0.64664662 0.43390065 1.47525 1.7134618e-38
-0.63719672 0.43153656 1.4723333 1.4654414e-38
-0.61310005 0.43153656 1.4723333 1.9253313e-38
-0.60578716 0.43433174 1.4723334 1.9625008e-38
-0.59924549 0.4317145 1.47 1.5476561e-38
-0.57733762 0.43429193 1.4700001 2.2479124e-38
-0.43302047 0.43489939 1.4744548 1.6205839e-38
-0.42471087 0.43545458 1.4744209 1.8605467e-38
-0.41681468 0.43377119 1.4720002 1.2890816e-38
-0.40292126 0.43178815 1.4746668 4.9684607e-39
-0.39390314 0.43334854 1.4731821 1.3905973e-38
-0.38519856 0.43334374 1.4711668 1.4921526e-38
-0.37490961 0.43336567 1.4725001 2.1830107e-38
-0.3653281 0.43463007 1.4731109 2.348926e-38
-0.35528907 0.43485773 1.4714735 2.3488187e-38
-0.34530279 0.43443784 1.4705001 2.3490347e-38
-0.33481348 0.43351406 1.4717499 2.321774e-38
-0.32521597 0.43422192 1.4732667 1.8975351e-38
-0.31760114 0.43480739 1.4746668 1.0965885e-38
-0.30169696 0.43765479 1.4770001 6.4464746e-39
-0.29599968 0.43843171 1.4770001 7.6306166e-39
-0.28445721 0.43702823 1.4749001 2.0535394e-38
-0.27493086 0.4356665 1.4746668 2.3118677e-38
-0.26619899 0.43517476 1.4730002 2.3211235e-38
-0.25536203 0.43463454 1.4711668 2.3396344e-38
-0.24601895 0.43377027 1.4770001 2.3395262e-38
-0.23470049 0.43242756 1.4742001 2.3119037e-38
-0.2253361 0.43261433 1.4708751 2.2933562e-38
-0.2139242 0.4317145 1.47 2.2656604e-38
-0.20382325 0.43135858 1.4746668 2.2748087e-38
-0.1817067 0.4317145 1.47 2.284243e-38
-0.17467818 0.43153653 1.4723334 2.2933201e-38
-0.16588759 0.43160772 1.4714001 2.3117229e-38
-0.15427351 0.43183649 1.4726251 2.3025392e-38
-0.14628586 0.43196607 1.4723334 2.3302342e-38
-0.10463323 0.4314476 1.4735001 2.2195264e-38
-0.098528281 0.43153656 1.4723333 2.2472237e-38
-0.070878498 0.4317145 1.47 2.2933925e-38
-0.067012399 0.4317145 1.47 2.2841379e-38
-0.0167531 0.4317145 1.47 2.265696e-38
-0.0054125404 0.43223 1.4700001 2.2841364e-38
0.0064435001 0.4317145 1.47 2.256513e-38
0.052836701 0.4317145 1.47 2.2474044e-38
0.086342901 0.4317145 1.47 2.2105616e-38
0.095363796 0.43257365 1.4700001 2.1920516e-38
0.21607202 0.4377284 1.47 1.2961422e-39
0.22541665 0.4356496 1.4735001 8.3589135e-40
0.2330706 0.4311806 1.4770001 1.0206343e-39
-0.29357964 0.44166049 1.4752501 5.9736289e-39
-0.28866881 0.44202411 1.47 5.6938008e-39
0.2074807 0.44975629 1.47 8.3589415e-40
0.21654017 0.4450714 1.4740002 1.1121153e-39
0.22228031 0.44240254 1.4770001 1.0195553e-39
0.19888937 0.45662937 1.47 7.4404885e-40
0.20546086 0.45615244 1.4740002 8.3553122e-40
0.21105838 0.45189801 1.4770001 8.3589415e-40
0.18789245 0.46625167 1.4700001 8.3552561e-40
0.19480236 0.46313423 1.4715557 9.2809118e-40
0.20156293 0.46311992 1.4770001 7.4369852e-40
0.17706738 0.47604576 1.4700001 6.5185322e-40
0.18467684 0.47395658 1.4731113 7.4440057e-40
0.19241273 0.47209749 1.4770001 7.4404885e-40
0.15550314 0.48755819 1.4700001 7.4405165e-40
0.16515304 0.48512957 1.4717501 8.3444801e-40
0.17524633 0.48337141 1.4752501 1.0191966e-39
0.1838668 0.48038441 1.4770001 5.6036384e-40
0.13660219 0.49614951 1.47 8.3517248e-40
0.14484239 0.49469376 1.470778 6.5186022e-40
0.15525971 0.49553284 1.4758334 5.5965759e-40
0.16522114 0.49281487 1.4770001 8.3480534e-40
0.17221327 0.4907431 1.4770001 1.4780168e-39
0.034794901 0.50903648 1.47 4.6846935e-39
0.1185604 0.50903648 1.47 6.5040988e-40
0.12564826 0.5083921 1.47 5.5965759e-40
0.13467249 0.50497007 1.4731821 7.4297405e-40
0.1442448 0.50343245 1.4770001 1.2035907e-39
0.15279073 0.50110179 1.4770001 5.5965759e-40
0.028780967 0.51333219 1.47 6.348877e-39
0.033127774 0.51328516 1.4723334 3.1274291e-39
0.11669894 0.51447761 1.4700001 6.5220494e-40
0.1249634 0.51641148 1.4756001 5.6001492e-40
0.13181438 0.51508605 1.4770001 5.5965198e-40
0.099229902 0.52707827 1.47 7.5520585e-39
0.10613243 0.52705133 1.4728001 1.5694753e-39
0.11413587 0.52540451 1.4752501 6.5256087e-40
0.12352742 0.52233708 1.4770001 6.5220494e-40
0.094949573 0.53478599 1.4735 8.8420966e-39
0.0012887 0.5425427 1.47 1.8367099e-40
0.089343727 0.54512626 1.4770001 7.7357182e-39
-0.59369892 -0.58380061 1.4858001 1.8529154e-38
-0.58434713 -0.58415836 1.4864287 1.8713546e-38
-0.578273 -0.58741051 1.4890001 1.8620272e-38
-0.6019448 -0.57334268 1.4830002 1.8896499e-38
-0.59569162 -0.57418162 1.4872001 1.880466e-38
-0.58741051 -0.57435691 1.4890002 1.89887e-38
-0.60333204 -0.56340981 1.485 1.8989769e-38
-0.59745961 -0.5661602 1.4876667 1.8989047e-38
-0.6051591 -0.55578721 1.4877145 1.898941e-38
-0.61234552 -0.5434404 1.483 1.9449674e-38
-0.6067031 -0.54586858 1.4855715 1.9081249e-38
-0.61468571 -0.53641993 1.4829999 1.9357837e-38
-0.60689837 -0.53576243 1.4865295 1.9265284e-38
-0.62446284 -0.52212191 1.4840001 1.972481e-38
-0.61471546 -0.52376145 1.4851429 1.9358194e-38
-0.60908645 -0.5262711 1.4863335 1.9266001e-38
-0.62207085 -0.51470643 1.4844999 1.9634054e-38
-0.61482292 -0.5143106 1.4890002 1.9633699e-38
-0.60960156 -0.51822656 1.4890001 1.9541152e-38
-0.62372541 -0.50460732 1.4843845 1.9817374e-38
-0.63184696 -0.49273664 1.483 1.9358553e-38
-0.62483108 -0.49466234 1.484875 1.9817732e-38
-0.64181441 -0.48320264 1.4830002 1.9726618e-38
-0.63444722 -0.48493609 1.483 1.9173809e-38
-0.62304592 -0.48510027 1.4844999 2.0002122e-38
-0.61743373 -0.48559266 1.4890001 2.0002482e-38
-0.64181441 -0.47886896 1.4830002 1.9820247e-38
-0.63375026 -0.47548288 1.4840587 1.9266007e-38
-0.62470496 -0.47597459 1.4851177 2.009432e-38
-0.64354783 -0.46413448 1.4829999 1.9818452e-38
-0.63472337 -0.46506602 1.4875716 1.9634064e-38
-0.62657118 -0.46731767 1.4890001 1.8986538e-38
-0.65221518 -0.45200032 1.4830002 1.9910653e-38
-0.64412242 -0.4545728 1.4843334 2.027871e-38
-0.63484162 -0.45463848 1.4883336 2.0279069e-38
-0.62683225 -0.45609164 1.4890002 2.027943e-38
-0.65134841 -0.44723326 1.483 2.0095045e-38
-0.64415759 -0.44492063 1.4837059 2.046274e-38
-0.63597268 -0.44494721 1.4884003 2.0278358e-38
-0.66174918 -0.43423229 1.483 2.0278716e-38
-0.65554875 -0.43333226 1.483 2.0462751e-38
-0.64436382 -0.43476677 1.4855263 2.037055e-38
-0.6377973 -0.43677235 1.4890002 2.0554938e-38
-0.66174924 -0.42513165 1.4830002 2.027835e-38
-0.65469515 -0.42481795 1.4838573 2.0371627e-38
-0.64577693 -0.42617157 1.4872859 2.0463464e-38
-0.66369933 -0.41473082 1.4829999 2.0370184e-38
-0.65578556 -0.41589442 1.487174 2.0279074e-38
-0.64876229 -0.41901949 1.4890001 2.0739694e-38
-0.67214996 -0.40823036 1.483 2.0095396e-38
-0.66566598 -0.40465307 1.4842 2.055494e-38
-0.65885073 -0.40612438 1.4860001 2.046311e-38
-0.67336255 -0.39412278 1.4846363 2.0371276e-38
-0.66720277 -0.39555228 1.4877144 2.0555661e-38
-0.68255079 -0.38352853 1.4830002 2.046454e-38
-0.67570114 -0.38459739 1.4847647 2.0647858e-38
-0.66625404 -0.38455811 1.4890002 2.0923715e-38
-0.68388003 -0.37342966 1.4842 2.055638e-38
-0.67567533 -0.37532777 1.4859999 2.0740052e-38
-0.66573191 -0.3759428 1.4890002 2.0648213e-38
-0.69403499 -0.36294365 1.483 2.0832604e-38
-0.68515104 -0.36402708 1.483 2.0832249e-38
-0.67638177 -0.36491075 1.4866002 2.0831888e-38
-0.66638464 -0.3665877 1.4890002 2.0831885e-38
-0.69425172 -0.35492641 1.483 2.0741131e-38
-0.68545192 -0.35433471 1.4878002 2.083261e-38
-0.6760518 -0.35562998 1.4874003 2.0833684e-38
-0.6687777 -0.35462189 1.4890001 2.0832966e-38
-0.69425166 -0.34582576 1.4829999 2.1016639e-38
-0.68475568 -0.34485656 1.4878001 2.1016644e-38
-0.67617476 -0.34853023 1.4890001 2.1016638e-38
-0.69359368 -0.33472708 1.4846363 2.0924444e-38
-0.68549997 -0.33456779 1.4885386 2.1016999e-38
-0.70161885 -0.32502416 1.483 2.0924804e-38
-0.69505459 -0.32510629 1.4865295 2.0832607e-38
-0.68400693 -0.32503384 1.4890002 2.1108829e-38
-0.71115285 -0.3107231 1.483 2.1110633e-38
-0.70336962 -0.31402087 1.4834616 2.0834045e-38
-0.69481707 -0.31547436 1.4870001 2.0095047e-38
-0.68661761 -0.31546122 1.4890002 2.0740058e-38
-0.71115285 -0.30422261 1.483 2.1202467e-38
-0.70422119 -0.30427483 1.4842631 2.0925164e-38
-0.69387466 -0.30539957 1.4863752 2.0280518e-38
-0.68661761 -0.30675882 1.4890002 1.926529e-38
-0.71115291 -0.29512197 1.4830002 2.1201751e-38
-0.70476985 -0.29484877 1.4860002 2.1109552e-38
-0.69706047 -0.29892668 1.4890001 2.1385418e-38
-0.71375316 -0.28519392 1.483 2.0833328e-38
-0.70519614 -0.28468564 1.4869002 2.101736e-38
-0.69836581 -0.28456777 1.4890001 2.1293949e-38
-0.72378242 -0.27357748 1.483 2.1201748e-38
-0.71432632 -0.27532139 1.4842 2.1109554e-38
-0.70510781 -0.27444232 1.4886472 2.1201032e-38
-0.69836581 -0.27412489 1.4890001 2.1386138e-38
-0.72350383 -0.26651981 1.4829999 2.1385775e-38
-0.71493369 -0.26535165 1.4848948 2.1109551e-38
-0.70489258 -0.26498747 1.4890002 2.1293223e-38
-0.7319544 -0.25221875 1.483 2.1017002e-38
-0.72467393 -0.25325882 1.4829999 2.1201387e-38
-0.71475852 -0.25517797 1.4851 2.1201748e-38
-0.70554519 -0.25693771 1.4890002 2.1477256e-38
-0.73247445 -0.24363811 1.483 2.1201749e-38
-0.72534835 -0.24452239 1.4848948 2.1201388e-38
-0.71661603 -0.2466287 1.4885001 2.1385059e-38
-0.73314905 -0.23368748 1.4836667 1.9267097e-38
-0.72683609 -0.23554134 1.4875002 1.9265294e-38
-0.71925151 -0.23888026 1.4890001 1.9544025e-38
-0.73406249 -0.22439505 1.4848461 1.8068188e-38
-0.72969437 -0.22582671 1.4890001 1.9635138e-38
-0.74300522 -0.21386591 1.483 2.1569457e-38
-0.73514485 -0.21546853 1.4841999 2.1385781e-38
-0.75119585 -0.20359515 1.483 2.0741842e-38
-0.74426717 -0.20516104 1.483857 2.1293589e-38
-0.73612243 -0.20592895 1.4861766 2.1201392e-38
-0.752756 -0.19501451 1.483 2.0463824e-38
-0.7435503 -0.19533008 1.4854001 2.0647861e-38
-0.73491585 -0.19580351 1.4890002 2.0648211e-38
-0.75164163 -0.18591383 1.483 2.1109192e-38
-0.74400079 -0.18502375 1.4863001 2.138542e-38
-0.73665631 -0.18623088 1.4890002 2.1385418e-38
-0.76185662 -0.17161275 1.483 2.1016638e-38
-0.75318944 -0.17334622 1.483 2.1108835e-38
-0.74445236 -0.17470528 1.4872001 2.1385422e-38
-0.76185668 -0.16511227 1.483 2.1016639e-38
-0.75496089 -0.1654222 1.4857693 2.1293585e-38
-0.74567258 -0.164566 1.4881432 2.1293226e-38
-0.76185668 -0.1560116 1.4829999 2.1109551e-38
-0.753878 -0.15520108 1.4854546 2.1293585e-38
-0.74783146 -0.15773249 1.4870002 2.1109194e-38
-0.76185668 -0.14561082 1.4829999 2.1201388e-38
-0.75697881 -0.14552069 1.4857273 2.1293582e-38
-0.76157874 -0.1353924 1.485 2.1293223e-38
-0.7571069 -0.13575709 1.4890002 2.1385419e-38
-0.76422673 -0.12622817 1.4882503 2.1201389e-38
-0.77199739 -0.11258837 1.483 2.1108832e-38
-0.76685387 -0.11354914 1.4844999 2.1016642e-38
-0.77361053 -0.10326817 1.4836 2.1017355e-38
-0.76678622 -0.10414799 1.485 2.1016997e-38
-0.77537841 -0.094972812 1.4840001 2.0832968e-38
-0.76673198 -0.094538502 1.4854001 2.1293225e-38
-0.78265816 -0.083206184 1.483 2.1201752e-38
-0.77465808 -0.085596442 1.4833529 2.1016998e-38
-0.76730293 -0.08597628 1.4860001 2.129286e-38
-0.78343832 -0.07488557 1.4829999 2.0833684e-38
-0.77560663 -0.076067485 1.4854707 2.0925519e-38
-0.78265822 -0.06630493 1.483 2.0741848e-38
-0.77824771 -0.065180168 1.4870002 2.0832966e-38
-0.7845518 -0.05385346 1.4837999 2.1110271e-38
-0.77851027 -0.058029197 1.4875 2.1202107e-38
-0.80215967 -0.041603092 1.483 2.1016987e-38
-0.79500914 -0.043119874 1.483 2.1294293e-38
-0.78489584 -0.044447873 1.4842632 2.120174e-38
-0.77530986 -0.042305458 1.4868183 1.9540045e-38
-0.76475263 -0.041584935 1.4890002 1.8154945e-38
-0.75527936 -0.040988199 1.4890002 2.0734985e-38
-0.74535865 -0.040466055 1.4890001 2.3504114e-38
-0.80215967 -0.036402706 1.483 2.0093591e-38
-0.79663426 -0.036077682 1.4829999 1.8620265e-38
-0.78785855 -0.037702803 1.483 1.7330245e-38
-0.77355754 -0.037702806 1.4830002 1.50221e-38
-0.76373112 -0.036652304 1.4855715 1.8707389e-38
-0.75402999 -0.03438637 1.487125 1.6035905e-38
-0.74535871 -0.033939272 1.4890002 1.3178219e-38
-0.76158047 -0.025166763 1.485 1.1057691e-38
-0.75486916 -0.028318522 1.4852499 9.768404e-39
-0.74666405 -0.027412489 1.4890001 1.0966939e-38
-0.80018365 -0.01174821 1.4890001 1.1798876e-38
-0.79175884 -0.01170087 1.483 1.2168734e-38
-0.78423357 -0.013029896 1.4860001 1.170633e-38
-0.77434033 -0.015641486 1.487 1.1798527e-38
-0.76730335 -0.01888822 1.4860001 1.1150629e-38
-0.81159347 -0.0013027266 1.4860001 1.2355323e-38
-0.80600464 -0.0060728164 1.4845002 1.2260238e-38
-0.55402792 -0.0013036033 1.4870002 4.4203568e-39
-0.81419033 0.0056951549 1.4844999 1.2172013e-38
-0.80866301 0.0042358339 1.4860001 1.2356043e-38
