# .PCD v0.7 - Point Cloud Data file format
VERSION 0.7
FIELDS x y z rgb
SIZE 4 4 4 4
TYPE F F F F
COUNT 1 1 1 1
WIDTH 980
HEIGHT 1
VIEWPOINT 0 0 0 1 0 0 0
POINTS 980
DATA ascii
-0.0415066 -0.2530286 0.93364292 1.1707409e-38
-0.038569339 -0.25612995 0.93611127 1.1707776e-38
-0.043575097 -0.2455761 0.93334794 1.1615569e-38
-0.042712897 -0.23473522 0.93256253 1.18918e-38
-0.043244451 -0.22583723 0.93399996 1.198436e-38
-0.047866873 -0.21427882 0.93337512 1.2076191e-38
-0.051408462 -0.20618543 0.93083334 1.2168027e-38
-0.048115414 -0.20475928 0.93425006 1.2076195e-38
-0.0513639 -0.1932261 0.93000007 1.2076193e-38
-0.04835508 -0.19502075 0.9332633 1.2076195e-38
-0.050883334 -0.18511605 0.93366665 1.2075838e-38
-0.048098754 -0.18665294 0.93629998 1.2259506e-38
-0.05081445 -0.17539535 0.93491668 1.2075478e-38
-0.052109938 -0.16561022 0.93366665 1.2259498e-38
-0.27054107 -0.15130565 0.93800002 1.8893194e-38
-0.26486194 -0.15047204 0.93537498 1.8893189e-38
-0.246694 -0.15212797 0.93800002 1.9723315e-38
-0.053516116 -0.15278327 0.93200004 1.2351328e-38
-0.27124593 -0.14366989 0.93800008 2.0186838e-38
-0.26511848 -0.14445613 0.93790609 2.0370871e-38
-0.2550759 -0.14356127 0.93455547 2.0832206e-38
-0.24639216 -0.14510195 0.93184626 2.0186464e-38
-0.21277708 -0.14648792 0.93350005 1.8712776e-38
-0.20857215 -0.14640947 0.93300003 2.0186114e-38
-0.054669812 -0.14431073 0.93407691 1.2535357e-38
-0.27177459 -0.13527055 0.93799996 1.8526962e-38
-0.26532689 -0.13471577 0.93699992 1.9816977e-38
-0.25501218 -0.13507009 0.9320001 2.0647095e-38
-0.2486665 -0.1320786 0.93000007 2.1108797e-38
-0.0611475 -0.1361551 0.93000007 1.2444946e-38
-0.056579124 -0.13543849 0.93350011 1.2443879e-38
-0.27218568 -0.12910321 0.93800008 0
-0.26510069 -0.12803471 0.93620014 0
-0.25404036 -0.12768058 0.93137503 4.4232196e-39
-0.2486665 -0.12718681 0.93000007 6.8202934e-39
-0.057587359 -0.12463433 0.93271446 1.2811939e-38
-0.059644893 -0.11684038 0.9320001 1.308781e-38
-0.060906123 -0.10133039 0.93466675 1.3273992e-38
-0.059836887 -0.10409978 0.93500012 1.3365106e-38
-0.061845969 -0.094986878 0.93566668 1.3181811e-38
-0.062957585 -0.085024096 0.93433332 1.3549877e-38
-0.063993774 -0.075946428 0.93349999 1.3642429e-38
-0.065970838 -0.063684665 0.93370003 1.4011218e-38
-0.066840865 -0.055141907 0.93366671 1.3827545e-38
-0.067410648 -0.045422599 0.93400013 1.4011225e-38
-0.067557745 -0.033956494 0.9349286 1.3920457e-38
-0.068536051 -0.024142522 0.93350005 1.4195606e-38
-0.071833089 -0.013924194 0.93466675 1.4103052e-38
-0.069149718 -0.018312983 0.93533337 1.3919021e-38
-0.073508635 -0.0044264211 0.93485004 1.3918665e-38
-0.073722981 0.0042613451 0.93445009 1.3826828e-38
-0.07517767 0.014055306 0.93383336 1.3734621e-38
-0.077242397 0.024709377 0.93340009 1.4009417e-38
-0.080853567 0.03512207 0.93160009 1.3456238e-38
-0.0785437 0.03470102 0.93491685 1.3732831e-38
-0.15295291 0.043350291 0.93300003 1.33535e-38
-0.081386141 0.045921117 0.9321 1.3918288e-38
-0.078246005 0.043799672 0.9356001 1.3641708e-38
-0.15099269 0.055503517 0.93100011 1.326203e-38
-0.14881681 0.059037365 0.93100011 1.3353861e-38
-0.082720518 0.056299243 0.93222225 1.5207585e-38
-0.079258233 0.053389546 0.9368751 1.3365481e-38
-0.15153331 0.065529086 0.93433344 1.3446073e-38
-0.14651759 0.065877959 0.93126947 1.326346e-38
-0.083350234 0.065375954 0.93216681 1.5207585e-38
-0.079764396 0.064140439 0.93800008 1.2996696e-38
-0.15000205 0.076230548 0.93500006 1.3723008e-38
-0.144907 0.074863411 0.93096989 1.3633331e-38
-0.13941629 0.079084098 0.93000007 1.8157109e-38
-0.083324343 0.075665325 0.93331599 1.5300507e-38
-0.1445279 0.085406788 0.93493325 1.35415e-38
-0.13625315 0.085685253 0.9315834 1.7880515e-38
-0.12800211 0.088867709 0.93000007 1.7697197e-38
-0.084401451 0.085803486 0.93544447 1.4102324e-38
-0.14352232 0.095127799 0.93624127 1.4094306e-38
-0.13500319 0.09515395 0.93438691 1.7604637e-38
-0.12620251 0.095540978 0.93144459 1.7696122e-38
-0.11862615 0.097428352 0.93000007 1.7696843e-38
-0.085472584 0.094881497 0.93491173 1.3549863e-38
-0.14335664 0.10141864 0.93800008 1.4279072e-38
-0.13350186 0.10383444 0.93566668 1.7511727e-38
-0.12442617 0.10462242 0.93447053 1.7512089e-38
-0.11485083 0.10521241 0.93176687 1.7604284e-38
-0.1084349 0.1076196 0.93000007 1.7512094e-38
-0.08735276 0.10449114 0.93310529 1.2904859e-38
-0.12148155 0.11381715 0.93700016 1.7235867e-38
-0.11470842 0.11470781 0.93458337 1.7419896e-38
-0.10495906 0.11513279 0.93096691 1.7512094e-38
-0.09419553 0.11670639 0.93094736 1.7144761e-38
-0.088271737 0.11305036 0.93580008 1.3459112e-38
-0.11283153 0.12406104 0.93716675 1.7143676e-38
-0.1049707 0.12463089 0.93440008 1.7327339e-38
-0.095091723 0.12475481 0.9351176 1.7327713e-38
-0.10346379 0.13343535 0.93664998 1.7235149e-38
-0.09531074 0.13447151 0.93611419 1.7236228e-38
-0.096539579 0.14127342 0.93800002 1.7051468e-38
-0.28173611 -0.37315491 0.94800007 1.1701215e-38
-0.27425638 -0.37315497 0.94800007 1.1701574e-38
-0.022548854 -0.37224901 0.944125 9.1262884e-39
-0.28132057 -0.36692187 0.94800007 1.1609022e-38
-0.27419245 -0.36558872 0.94777787 1.1885612e-38
-0.26843885 -0.36733735 0.94800007 8.9375278e-39
-0.23388517 -0.36140746 0.94050002 9.4071997e-39
-0.023662684 -0.36423418 0.94384998 9.2173924e-39
-0.27293643 -0.35770664 0.94800007 1.2070353e-38
-0.23208378 -0.35609907 0.94099998 1.004606e-38
-0.2280097 -0.35297713 0.94029999 1.7419548e-38
-0.024162892 -0.356729 0.94670588 9.0326424e-39
-0.52741885 -0.34170669 0.94150007 1.1250037e-38
-0.22635224 -0.34434983 0.94230789 1.5855482e-38
-0.026162922 -0.3434839 0.94618183 9.217028e-39
-0.52511722 -0.33469084 0.94033349 1.1435869e-38
-0.22467367 -0.33543789 0.94432265 1.4933513e-38
-0.21717322 -0.33239919 0.94033337 9.4039024e-39
-0.027869526 -0.335832 0.94433337 9.4936163e-39
-0.52590799 -0.32463142 0.9429999 1.217271e-38
-0.51686358 -0.32347831 0.94015813 1.1988302e-38
-0.22190276 -0.32729018 0.94659996 1.1701927e-38
-0.21533465 -0.32489222 0.94253367 1.2629658e-38
-0.20848887 -0.32056195 0.94000006 1.6504402e-38
-0.02829924 -0.32551849 0.94483328 9.6794495e-39
-0.5310601 -0.31248605 0.94800007 1.2266335e-38
-0.52601635 -0.3158378 0.94609994 1.1989037e-38
-0.51640409 -0.31450367 0.94117421 1.1804269e-38
-0.5076251 -0.31067312 0.94000006 1.1988305e-38
-0.21365856 -0.31506625 0.94435728 1.01328e-38
-0.20666724 -0.31457663 0.94000036 1.0226798e-38
-0.029087801 -0.31913471 0.94800007 9.8645667e-39
-0.5310601 -0.30749959 0.94800007 1.1896825e-38
-0.52672094 -0.3073906 0.94766665 1.1528404e-38
-0.51444232 -0.30530131 0.94436103 1.1989019e-38
-0.50501698 -0.30391461 0.94150031 1.2081216e-38
-0.21361451 -0.30705047 0.94713342 1.0131728e-38
-0.2060457 -0.30401018 0.94155192 1.0314676e-38
-0.031639528 -0.30377477 0.94271433 1.041739e-38
-0.51247978 -0.29613459 0.94687504 1.1989022e-38
-0.50452828 -0.29469672 0.94389296 1.2080503e-38
-0.49757147 -0.29287332 0.94000006 1.2356728e-38
-0.47273958 -0.29254368 0.94000006 1.0977028e-38
-0.21026324 -0.29752666 0.94800007 1.0406886e-38
-0.20422505 -0.29492515 0.94384378 1.0684172e-38
-0.19733162 -0.29368898 0.94088238 1.0683798e-38
-0.032869019 -0.29421282 0.94390923 1.0970207e-38
-0.5032196 -0.28509653 0.94674999 1.2264164e-38
-0.49544948 -0.28364068 0.94283342 1.2540755e-38
-0.48867154 -0.28183079 0.94000006 1.2449287e-38
-0.47240511 -0.2833716 0.94042879 1.3187216e-38
-0.46881548 -0.28062844 0.94150007 1.0421335e-38
-0.20334995 -0.28603217 0.94633335 1.1239891e-38
-0.19535206 -0.28448445 0.94248593 1.1145886e-38
-0.18871127 -0.28183079 0.94000006 1.0960026e-38
-0.033959437 -0.28541672 0.94260019 1.1155318e-38
-0.50114125 -0.27841181 0.94800007 1.2541462e-38
-0.49430767 -0.27482525 0.94599992 1.2541108e-38
-0.48405606 -0.27416241 0.94160038 1.2725142e-38
-0.47412851 -0.2745645 0.94219637 1.3002458e-38
-0.46898204 -0.27832764 0.9435001 1.0329864e-38
-0.2013984 -0.27564153 0.94800013 1.0407959e-38
-0.19517539 -0.27508172 0.94475681 1.0684522e-38
-0.18645787 -0.27421868 0.9407503 1.1421024e-38
-0.033686914 -0.27509031 0.94346678 1.1431902e-38
-0.49294424 -0.26727784 0.94763637 1.2541831e-38
-0.48475331 -0.26567933 0.94655156 1.2725147e-38
-0.47494233 -0.26583329 0.94603336 1.3554194e-38
-0.19167046 -0.26434916 0.94750005 1.2432644e-38
-0.18519513 -0.26508889 0.94305003 1.1512857e-38
-0.17807333 -0.26497489 0.94000024 1.1974199e-38
-0.034767285 -0.26654327 0.94425005 1.152374e-38
-0.47205344 -0.25431046 0.94800007 1.419957e-38
-0.1911484 -0.25680372 0.94800007 1.1972033e-38
-0.18486913 -0.25454658 0.94440001 1.2156799e-38
-0.17820112 -0.25492269 0.94107157 1.2158226e-38
-0.037319705 -0.25542736 0.94600004 1.1799973e-38
-0.47122237 -0.24849291 0.94800007 1.4019496e-38
-0.46956021 -0.24849291 0.94800007 1.4019496e-38
-0.1826348 -0.24618874 0.94766665 1.2248994e-38
-0.1782366 -0.24507846 0.94563156 1.2341182e-38
-0.040430818 -0.24340685 0.94120008 1.179925e-38
-0.03840977 -0.24760199 0.94371438 1.1891806e-38
-0.17636648 -0.23597807 0.94450003 1.2525911e-38
-0.040637005 -0.23801675 0.94600004 1.2075835e-38
-0.03906076 -0.23020916 0.94800007 1.226095e-38
-0.042023975 -0.22216415 0.94336373 1.2075832e-38
-0.03906076 -0.2245578 0.94800007 1.226058e-38
-0.04306829 -0.21494381 0.9448334 1.2168031e-38
-0.03906076 -0.2160808 0.94800007 1.2076549e-38
-0.043436717 -0.2051595 0.94468182 1.2168028e-38
-0.17332928 -0.19323312 0.94600004 1.4553844e-38
-0.044508547 -0.19490249 0.94606668 1.2167674e-38
-0.045084197 -0.18380526 0.94599998 1.198364e-38
-0.050268065 -0.1705818 0.94000006 1.2168031e-38
-0.046001516 -0.17532025 0.94557148 1.2075468e-38
-0.050549347 -0.164372 0.94085717 1.2167658e-38
-0.047547251 -0.16488539 0.94570589 1.2167308e-38
-0.27571592 -0.15164039 0.94350004 1.8985751e-38
-0.26617354 -0.15245233 0.94000006 1.9354188e-38
-0.25358784 -0.15154383 0.94633341 1.9722225e-38
-0.24804407 -0.15080419 0.94000006 1.9262696e-38
-0.051212456 -0.15529341 0.94225001 1.2350609e-38
-0.048971649 -0.15521312 0.94680005 1.2534651e-38
-0.29367137 -0.14288957 0.94762504 1.9634029e-38
-0.28501663 -0.1438638 0.94509095 1.9910608e-38
-0.27570194 -0.14503461 0.94087523 2.0095003e-38
-0.26452538 -0.14915606 0.94000006 1.9999535e-38
-0.25669676 -0.14791997 0.94000006 2.0460886e-38
-0.2496922 -0.14915606 0.94000006 1.898683e-38
-0.050572269 -0.14464661 0.94128579 1.2626833e-38
-0.048433691 -0.14419529 0.94711125 1.262683e-38
-0.30250463 -0.13127106 0.94685721 0
-0.29438925 -0.13452344 0.94779998 1.1245321e-38
-0.28398505 -0.13621227 0.94417393 1.8896815e-38
-0.27623335 -0.13527142 0.94030017 1.908013e-38
-0.051776495 -0.13511719 0.9439286 1.2535716e-38
-0.04903372 -0.13879035 0.94800007 1.2903421e-38
-0.29938692 -0.12854563 0.94600004 1.8367099e-39
-0.054387227 -0.12493261 0.9448334 1.2811588e-38
-0.057695251 -0.11563027 0.94407153 1.2720829e-38
-0.057449903 -0.10447221 0.94433343 1.3181444e-38
-0.060156867 -0.096415803 0.94000006 1.3181454e-38
-0.057861999 -0.095138259 0.94485718 1.3273647e-38
-0.060386889 -0.084498726 0.94037503 1.3365841e-38
-0.057979666 -0.084486991 0.9448334 1.3458396e-38
-0.061750814 -0.074369438 0.94393754 1.3642436e-38
-0.059006684 -0.074797206 0.94800007 1.3642435e-38
-0.062328413 -0.064864472 0.94536853 1.3734991e-38
-0.059006684 -0.064824238 0.94800007 1.3919025e-38
-0.062051285 -0.054815497 0.94381255 1.3919386e-38
-0.05900668 -0.056513436 0.94800007 1.4103408e-38
-0.063009724 -0.044775359 0.94577789 1.4103412e-38
-0.065015137 -0.035610419 0.94475007 1.4011579e-38
-0.066339254 -0.024871575 0.94323081 1.4103413e-38
-0.070045665 -0.013185067 0.94000006 1.4102687e-38
-0.067490116 -0.015103483 0.945077 1.4011575e-38
-0.070313059 -0.0053002019 0.94042861 1.3919023e-38
-0.067161001 -0.0049755219 0.94583321 1.4102693e-38
-0.070597418 0.0057826024 0.94187498 1.3919378e-38
-0.067871056 0.0032236979 0.94544441 1.3918656e-38
-0.072124489 0.015364508 0.94449997 1.3734621e-38
-0.074038841 0.024373135 0.94427776 1.3917579e-38
-0.076131418 0.034419179 0.94225001 1.3733194e-38
-0.075135402 0.045745343 0.94346154 1.3825017e-38
-0.075887814 0.054909497 0.94377285 1.3732466e-38
-0.07766214 0.064287454 0.94476926 1.3456958e-38
-0.080797814 0.076505296 0.94239998 1.2813383e-38
-0.078284457 0.07453759 0.94533348 1.3364394e-38
-0.14915606 0.086527005 0.94000006 1.3538953e-38
-0.080497913 0.084278606 0.94385725 1.3088528e-38
-0.077904105 0.084421925 0.94769233 1.34566e-38
-0.14876537 0.095970742 0.9410001 1.3998853e-38
-0.080665387 0.095557109 0.94375002 1.3733553e-38
-0.078287743 0.093579613 0.94800007 1.3548433e-38
-0.1454204 0.10564306 0.94365227 1.4000666e-38
-0.13731822 0.10790151 0.94075 1.7419529e-38
-0.12690628 0.10960086 0.94000006 1.7512087e-38
-0.082901672 0.10503777 0.94421059 1.4470731e-38
-0.078952603 0.10056068 0.94800007 1.3364757e-38
-0.14425351 0.11474234 0.94666642 1.4186509e-38
-0.13482849 0.11527428 0.94203258 1.7235497e-38
-0.12658255 0.11594485 0.94144475 1.7235507e-38
-0.08507514 0.11578404 0.94454181 1.3733889e-38
-0.14315885 0.12323347 0.94704747 1.4094671e-38
-0.13456264 0.12512405 0.9464826 1.7051112e-38
-0.12507389 0.12507416 0.94481468 1.7143313e-38
-0.11749168 0.12594989 0.94131255 1.705148e-38
-0.090304442 0.12548307 0.9425714 1.5395231e-38
-0.086600631 0.12407381 0.94611764 1.2352763e-38
-0.12262136 0.13416624 0.94681805 1.6867446e-38
-0.11498752 0.13483939 0.94360006 1.7051113e-38
-0.10751857 0.13666713 0.94100022 1.7051108e-38
-0.090382233 0.13631605 0.9424001 1.6223534e-38
-0.088261046 0.13458638 0.9460001 1.2904871e-38
-0.12092214 0.14169914 0.94800007 1.668342e-38
-0.11416446 0.14331384 0.94696295 1.6866725e-38
-0.10461793 0.14524278 0.94439292 1.6959276e-38
-0.094483651 0.14545092 0.94234395 1.6867807e-38
-0.088925563 0.14460792 0.94800007 1.290523e-38
-0.10292885 0.15389809 0.9464761 1.6774528e-38
-0.09443818 0.15462095 0.94577384 1.6867092e-38
-0.088925563 0.15042548 0.94800007 1.3089628e-38
-0.10192813 0.16300198 0.9478333 1.659049e-38
-0.096088111 0.1630926 0.94789475 1.6590861e-38
-0.31094757 -0.37700436 0.95900011 1.1239508e-38
-0.30410808 -0.3749598 0.95796281 1.151538e-38
-0.29517579 -0.37379035 0.95404011 1.1701216e-38
-0.28762996 -0.37350211 0.95100015 1.1609021e-38
-0.26470634 -0.37405759 0.95467645 7.1868913e-39
-0.25978351 -0.37580332 0.95900005 5.621718e-39
-0.24128759 -0.37580332 0.95900005 5.9055412e-39
-0.02084275 -0.37100095 0.95100003 9.3110327e-39
-0.019260017 -0.37431213 0.95520002 9.4950723e-39
-0.30139932 -0.36865717 0.95900005 1.1791957e-38
-0.29406631 -0.36545655 0.95696539 1.1793045e-38
-0.2858099 -0.36445591 0.95187515 1.1793042e-38
-0.27929285 -0.36099643 0.95100003 1.1976742e-38
-0.26638681 -0.36527464 0.95376676 7.8308202e-39
-0.02084275 -0.36683238 0.95100003 9.4017864e-39
-0.018438417 -0.36459917 0.9560833 9.3099509e-39
-0.29125938 -0.35480985 0.95845449 1.206891e-38
-0.28457853 -0.35491478 0.95391196 1.1976717e-38
-0.27522027 -0.35356429 0.95144463 1.1885603e-38
-0.26791772 -0.35510275 0.95445007 7.5545934e-39
-0.022594932 -0.35381204 0.95468765 9.2159588e-39
-0.01865196 -0.35842693 0.95840007 9.3095894e-39
-0.29135737 -0.34665823 0.95900005 1.1240238e-38
-0.28407142 -0.34570044 0.95746404 1.1055128e-38
-0.27479315 -0.34496629 0.95511359 1.1423901e-38
-0.26738903 -0.34499642 0.95728564 7.4605887e-39
-0.23358345 -0.34158528 0.95500004 8.4834217e-39
-0.023754662 -0.34353936 0.953143 9.3088663e-39
-0.27353978 -0.33573395 0.95872718 1.2069637e-38
-0.26850557 -0.33783764 0.95862502 8.8446134e-39
-0.23160461 -0.33611554 0.95375007 1.1156366e-38
-0.22903617 -0.33227631 0.9528001 1.7330585e-38
-0.024539188 -0.33424881 0.95653343 9.4939765e-39
-0.23059621 -0.32534987 0.95650005 1.4839517e-38
-0.22560067 -0.32416785 0.95352012 1.6128448e-38
-0.21926573 -0.32097834 0.95100003 9.5785771e-39
-0.025432862 -0.32550481 0.95646679 9.862766e-39
-0.528072 -0.3116408 0.95100003 1.236032e-38
-0.23047566 -0.31596118 0.95600003 1.2997038e-38
-0.2251956 -0.31459051 0.95332283 1.4746965e-38
-0.21926573 -0.3168098 0.95100003 8.934274e-39
-0.028372919 -0.31502333 0.9545455 1.01408e-38
-0.53162992 -0.3023974 0.95200008 1.2079078e-38
-0.52645707 -0.30465305 0.95210028 1.2173431e-38
-0.51940131 -0.3009693 0.95100003 1.2542193e-38
-0.23083729 -0.3055433 0.95750004 1.0505959e-38
-0.22519478 -0.30489746 0.95451432 1.4932074e-38
-0.21693328 -0.3037338 0.95126104 1.0131004e-38
-0.028504953 -0.30494991 0.9542309 1.0785814e-38
-0.53211546 -0.29442152 0.95352185 1.1435506e-38
-0.52491349 -0.29462302 0.95313364 1.2082313e-38
-0.51730531 -0.29307351 0.95190018 1.2173053e-38
-0.50939679 -0.29096478 0.95100003 1.226418e-38
-0.22398478 -0.29470283 0.95792836 1.4378893e-38
-0.21502599 -0.29468238 0.95275021 1.0501234e-38
-0.20926121 -0.29096478 0.95100003 1.0870001e-38
-0.028773954 -0.29584399 0.95600003 1.1154601e-38
-0.53304207 -0.28503934 0.95710707 1.1619529e-38
-0.52462482 -0.28508937 0.95646656 1.2265624e-38
-0.51505756 -0.28483948 0.95342886 1.2081213e-38
-0.50822967 -0.28362814 0.95100015 1.2264883e-38
-0.22235388 -0.28762922 0.95814288 1.3273634e-38
-0.21509574 -0.28488904 0.95516121 1.1147326e-38
-0.20792238 -0.28390601 0.95250022 1.1146606e-38
-0.031406693 -0.28434125 0.95537513 1.1339356e-38
-0.53402895 -0.27834806 0.95749998 1.1527335e-38
-0.52300531 -0.27756035 0.95830774 1.2081234e-38
-0.51458323 -0.27524844 0.95634609 1.226488e-38
-0.50566101 -0.27483928 0.95251745 1.2357077e-38
-0.49855858 -0.27095574 0.95100003 1.2357081e-38
-0.47141767 -0.27200183 0.95175004 1.0052576e-38
-0.21313508 -0.27648571 0.95861536 1.0775994e-38
-0.20594516 -0.27452007 0.95320702 1.0868563e-38
-0.19758926 -0.27095574 0.95100009 1.04994e-38
-0.031106763 -0.27659798 0.95900005 1.1615935e-38
-0.51260674 -0.26740986 0.95878565 1.2449633e-38
-0.50428385 -0.26481402 0.95508003 1.2265242e-38
-0.49572685 -0.26322165 0.95181841 1.2449276e-38
-0.48553929 -0.26220021 0.95130008 1.2908819e-38
-0.47549868 -0.26333699 0.95413053 1.2909186e-38
-0.21102157 -0.26819074 0.95900005 1.0960731e-38
-0.20513956 -0.26490802 0.95558053 1.1421364e-38
-0.19703121 -0.26511812 0.95184016 1.1419568e-38
-0.033056218 -0.26435897 0.95528585 1.170813e-38
-0.53049648 -0.25810206 0.95900005 1.1528058e-38
-0.52881497 -0.25810206 0.95900005 1.1435864e-38
-0.50364554 -0.2570971 0.9575001 1.2356721e-38
-0.49350789 -0.25481868 0.95394123 1.2632951e-38
-0.48536924 -0.25541231 0.95336688 1.2816986e-38
-0.47609186 -0.25458008 0.95189673 1.3553835e-38
-0.20464954 -0.25559732 0.95670831 1.1512487e-38
-0.19587651 -0.25420651 0.95224267 1.1604332e-38
-0.034024447 -0.25512943 0.95605004 1.1891803e-38
-0.49414006 -0.24521948 0.95859981 1.2724066e-38
-0.48420045 -0.24502905 0.95612115 1.2816972e-38
-0.47597429 -0.24510764 0.95624232 1.3554909e-38
-0.20180391 -0.24790181 0.95857155 1.151142e-38
-0.19489433 -0.2445628 0.95464528 1.2063858e-38
-0.1871549 -0.24401321 0.95139146 1.2156437e-38
-0.03660183 -0.24412654 0.95486367 1.1984001e-38
-0.49326438 -0.23912574 0.95900011 1.2633307e-38
-0.48316365 -0.23716806 0.95899981 1.3000297e-38
-0.47652197 -0.23775654 0.95900005 1.3461638e-38
-0.19460425 -0.23500772 0.95751709 1.2157497e-38
-0.18526705 -0.23516665 0.95408344 1.2341184e-38
-0.17910855 -0.2342577 0.95322227 1.2987254e-38
-0.04085179 -0.23927477 0.95100003 1.2075835e-38
-0.037109405 -0.23564535 0.95576465 1.1983645e-38
-0.19112444 -0.22671507 0.95900005 1.2617409e-38
-0.18503916 -0.22495438 0.95715141 1.2526291e-38
-0.17893469 -0.2250174 0.95418197 1.2708884e-38
-0.03704942 -0.22533868 0.95553857 1.2076193e-38
-0.18342826 -0.21513052 0.95733309 1.2894691e-38
-0.17806153 -0.21489355 0.95485717 1.3169853e-38
-0.037349071 -0.21477489 0.95592868 1.2168385e-38
-0.1821813 -0.20631722 0.95845449 1.317019e-38
-0.17879397 -0.20480905 0.95750004 1.2801768e-38
-0.041333079 -0.20290977 0.95250005 1.2076547e-38
-0.038866531 -0.20663989 0.95688885 1.2259865e-38
-0.1766514 -0.19593835 0.95650005 1.4278364e-38
-0.041579187 -0.19452533 0.95381826 1.2167312e-38
-0.041579094 -0.18596193 0.95337498 1.2075474e-38
-0.039513998 -0.18159623 0.95900005 1.2075115e-38
-0.041898452 -0.17391455 0.95418185 1.2167301e-38
-0.039390385 -0.17767578 0.95600003 1.2167665e-38
-0.30013824 -0.16057816 0.95900005 1.8523689e-38
-0.29509389 -0.16099852 0.95900005 1.8523682e-38
-0.043895636 -0.16482528 0.95440018 1.235097e-38
-0.34337541 -0.15625444 0.95900011 1.8433678e-38
-0.33881149 -0.15553382 0.95900005 1.9447479e-38
-0.32115632 -0.15048948 0.95900005 1.9173409e-38
-0.31414986 -0.15367071 0.95748138 1.9262713e-38
-0.30453816 -0.15414158 0.95400017 1.926234e-38
-0.29613188 -0.15492105 0.95604175 1.9170148e-38
-0.28579605 -0.15485638 0.95826662 1.9261985e-38
-0.25594896 -0.15256894 0.95100003 1.9812976e-38
-0.046172552 -0.15480871 0.95400017 1.2442807e-38
-0.3227281 -0.14442167 0.95899981 1.9265245e-38
-0.31477967 -0.14437538 0.9574998 1.9265959e-38
-0.30463135 -0.14500663 0.95257163 1.9358165e-38
-0.29631534 -0.14710395 0.95117658 2.000281e-38
-0.28681904 -0.14883521 0.95200008 2.0463065e-38
-0.046159424 -0.14475696 0.9545002 1.2534996e-38
-0.32332447 -0.13526796 0.95899981 6.1752855e-39
-0.31481269 -0.13635005 0.95899981 1.0047861e-38
-0.30457535 -0.13691965 0.95445478 1.5116084e-38
-0.29456875 -0.13454816 0.95146173 1.1705196e-38
-0.28679624 -0.13297674 0.95100003 1.032118e-38
-0.050856311 -0.13172618 0.95100003 1.290342e-38
-0.048317149 -0.13527358 0.95661539 1.2719391e-38
-0.051160954 -0.12428635 0.95150012 1.2903428e-38
-0.048667129 -0.12502611 0.95716661 1.2903784e-38
-0.0533842 -0.11516906 0.9534784 1.2904503e-38
-0.04868437 -0.11499763 0.95749998 1.308925e-38
-0.053313304 -0.10604514 0.95475006 1.3181086e-38
-0.049104728 -0.10828236 0.95750004 1.3089616e-38
-0.054393988 -0.095405109 0.95462513 1.3274011e-38
-0.055457231 -0.085446782 0.95559996 1.3459116e-38
-0.057355337 -0.076378025 0.95744449 1.3733909e-38
-0.058009911 -0.066417143 0.95900005 1.3827191e-38
-0.060860831 -0.052523728 0.95100003 1.4104136e-38
-0.058601659 -0.055270325 0.95500004 1.3826824e-38
-0.060988825 -0.042606875 0.95300007 1.4011569e-38
-0.058944147 -0.044973582 0.95600003 1.4103775e-38
-0.062441126 -0.034666687 0.9528752 1.4011575e-38
-0.058696777 -0.035220087 0.95649999 1.4103057e-38
-0.062788524 -0.025115235 0.95500016 1.4011581e-38
-0.058865532 -0.027212361 0.95728576 1.4011576e-38
-0.063353837 -0.014754142 0.95436376 1.4011574e-38
-0.059691362 -0.015133021 0.95900005 1.373535e-38
-0.06364464 -0.0068013752 0.95666665 1.4286717e-38
-0.059691355 -0.0092479568 0.95900005 1.4103055e-38
-0.067083031 0.0067930953 0.95522225 1.3918646e-38
-0.067992844 0.014644498 0.95462501 1.3734627e-38
-0.071830124 0.026938871 0.95275003 1.3734271e-38
-0.068674281 0.02512994 0.95533341 1.3734621e-38
-0.072808333 0.035151709 0.95466679 1.3642064e-38
-0.069359683 0.03446966 0.95900005 1.3733895e-38
-0.0723297 0.044713952 0.95464307 1.382501e-38
-0.069780044 0.045399062 0.95900005 1.3549508e-38
-0.072776832 0.055717256 0.95419997 1.3640978e-38
-0.074367963 0.064735807 0.95587498 1.3365111e-38
-0.07617332 0.073782019 0.95485723 1.3364392e-38
-0.075927444 0.085107453 0.95175004 1.3640625e-38
-0.07832028 0.095963076 0.95185727 1.3732103e-38
-0.15090153 0.10754859 0.95100009 1.3815542e-38
-0.080997422 0.10855456 0.95250005 1.4377108e-38
-0.07878653 0.10527024 0.95722228 1.3640266e-38
-0.15099671 0.11429244 0.95160007 1.4367635e-38
-0.14890061 0.11621918 0.95100003 1.4460551e-38
-0.081544608 0.11561596 0.95566672 1.4746246e-38
-0.15001871 0.12990446 0.95600003 2.073599e-38
-0.1468671 0.12683739 0.95185733 1.5292117e-38
-0.13922957 0.12922505 0.95100003 1.6405745e-38
-0.08319211 0.12627232 0.95473349 1.4746611e-38
-0.14472021 0.13548115 0.95496565 2.0461972e-38
-0.13518113 0.13518187 0.95183343 1.6498661e-38
-0.12811989 0.13563117 0.95164311 1.6775251e-38
-0.084347144 0.13526596 0.95463169 1.4009404e-38
-0.15048948 0.14712659 0.95900005 2.0552361e-38
-0.14531341 0.14499067 0.95726913 2.0184659e-38
-0.1354537 0.14495793 0.95470965 1.6406103e-38
-0.12587188 0.1454799 0.9538967 1.6683055e-38
-0.11625624 0.14849301 0.95100009 1.6774529e-38
-0.08554484 0.14513648 0.95538104 1.3180012e-38
-0.14096129 0.15104997 0.95900005 1.7881221e-38
-0.13431931 0.15309061 0.95794117 1.6313908e-38
-0.12542482 0.154157 0.95620674 1.6498307e-38
-0.11512562 0.15492752 0.9533127 1.6498664e-38
-0.10786062 0.15612936 0.95164311 1.6683055e-38
-0.090874389 0.15923861 0.95100003 1.6775266e-38
-0.086783312 0.15480602 0.95495838 1.2995981e-38
-0.12216589 0.16358724 0.95775002 1.6314273e-38
-0.1156318 0.16456619 0.95621848 1.6406463e-38
-0.10653379 0.16602379 0.95291322 1.640647e-38
-0.093856379 0.16683844 0.95275015 1.6591227e-38
-0.088161983 0.16413634 0.95638472 1.3181816e-38
-0.11449985 0.17455138 0.95779979 1.6130235e-38
-0.10560203 0.17477629 0.95477432 1.6221715e-38
-0.095180064 0.17459263 0.95377433 1.6406472e-38
-0.08928483 0.17487045 0.95900005 1.3919381e-38
-0.11069524 0.181316 0.95900005 1.6221727e-38
-0.10343317 0.18355371 0.95749992 1.6038409e-38
-0.095590942 0.18410939 0.95703101 1.6129886e-38
-0.10004608 0.19084419 0.95900005 1.5946206e-38
-0.097523905 0.19084419 0.95900005 1.594585e-38
-0.33542114 -0.38148153 0.96700013 1.0962935e-38
-0.32615915 -0.38112411 0.96466678 1.1055125e-38
-0.31710085 -0.38035235 0.96200007 1.1056194e-38
-0.25367203 -0.38083228 0.96375 2.5861818e-39
-0.24711524 -0.38190538 0.96700007 1.2721216e-38
-0.016954733 -0.38232923 0.96700007 9.4954436e-39
-0.33739918 -0.37809056 0.96700007 1.1147324e-38
-0.32445991 -0.37581885 0.96492016 1.1238796e-38
-0.31609851 -0.3741456 0.96283877 1.1331348e-38
-0.30803481 -0.37170798 0.96200001 1.16994e-38
-0.26101786 -0.3723405 0.96200007 6.449678e-39
-0.25451735 -0.37480944 0.96482646 2.0340856e-39
-0.24542886 -0.3744441 0.96434802 9.1284618e-39
-0.015980804 -0.37502137 0.96516675 9.5869064e-39
-0.31372774 -0.36489388 0.96431583 1.1515735e-38
-0.30541438 -0.36420816 0.96200007 1.1607925e-38
-0.29842663 -0.36179858 0.96200007 1.1793398e-38
-0.26306647 -0.36377537 0.96333349 6.8184591e-39
-0.25786361 -0.3656081 0.96573699 3.8732884e-39
-0.24368748 -0.36862969 0.96516675 7.56218e-39
-0.23916519 -0.36424097 0.96400005 8.2035768e-39
-0.31378567 -0.35476717 0.96505558 1.1699399e-38
-0.30529392 -0.35505167 0.96200001 1.1700123e-38
-0.29689133 -0.35508904 0.96210003 1.2068899e-38
-0.26403153 -0.35582453 0.96429181 7.0928908e-39
-0.25855967 -0.3585926 0.96700007 5.0681967e-39
-0.018428147 -0.35471416 0.9643001 9.3088649e-39
-0.31121737 -0.3481082 0.96520007 1.0961132e-38
-0.30460858 -0.34633043 0.96400023 1.1145866e-38
-0.29605848 -0.34471488 0.96250004 1.1238436e-38
-0.28758347 -0.34240144 0.96200007 1.1421743e-38
-0.26426879 -0.34486544 0.96433342 8.106677e-39
-0.23651853 -0.34502882 0.96700007 8.4819783e-39
-0.021577615 -0.34524772 0.96525007 9.4014207e-39
-0.30179423 -0.3399424 0.96700007 1.1607572e-38
-0.29377824 -0.33633614 0.96572751 1.1977069e-38
-0.28497025 -0.33577752 0.96228576 1.1975637e-38
-0.27642527 -0.33390307 0.96200001 1.1884523e-38
-0.2653071 -0.33507231 0.96340013 8.1974447e-39
-0.02139052 -0.33578306 0.96316671 9.4932618e-39
-0.019497944 -0.33621237 0.96700013 9.5850917e-39
-0.29119754 -0.32849795 0.96700007 1.123771e-38
-0.28457871 -0.32574275 0.96416157 1.12377e-38
-0.27515647 -0.32527617 0.96215802 1.1330259e-38
-0.26684859 -0.32520366 0.96286964 8.842084e-39
-0.02302039 -0.32412887 0.96417654 9.9549616e-39
-0.019497944 -0.3280741 0.96700013 1.02301e-38
-0.28132746 -0.31741685 0.96700013 1.1883431e-38
-0.27435672 -0.31674758 0.96412015 1.2066749e-38
-0.26842403 -0.31830373 0.96437502 1.1423185e-38
-0.024442084 -0.31509021 0.96541178 1.0601047e-38
-0.23023546 -0.30192047 0.96200007 1.1615184e-38
-0.024970507 -0.3055881 0.96453339 1.0969845e-38
-0.23023546 -0.29517365 0.96200007 9.3117292e-39
-0.22798651 -0.29320583 0.96200007 1.6039502e-38
-0.027229559 -0.29404044 0.96566671 1.1246796e-38
-0.53046924 -0.28083667 0.96200007 1.3002088e-38
-0.230395 -0.282718 0.96266675 8.4830769e-39
-0.2254153 -0.28412184 0.96215993 1.4564003e-38
-0.21842851 -0.28083667 0.96200007 1.0223909e-38
-0.028277589 -0.28567076 0.96580011 1.1339707e-38
-0.53486669 -0.27469227 0.96316135 1.1619175e-38
-0.5254057 -0.27343008 0.9622609 1.263476e-38
-0.23071411 -0.27973029 0.96400005 7.9306234e-39
-0.22422527 -0.27586707 0.96422613 1.3824277e-38
-0.21659677 -0.27395782 0.96223527 1.1146231e-38
-0.031204073 -0.27493319 0.96200007 1.1615573e-38
-0.028874097 -0.27498966 0.96653855 1.1707417e-38
-0.53537375 -0.26530552 0.96288258 1.161917e-38
-0.52532482 -0.26488063 0.9642505 1.2358532e-38
-0.51665115 -0.26356924 0.96319056 1.235708e-38
-0.47480792 -0.26143953 0.96200007 1.0055084e-38
-0.22356939 -0.26523718 0.96582639 1.3639892e-38
-0.21563821 -0.26465917 0.96303457 1.1607226e-38
-0.029105624 -0.26421127 0.96700013 1.1983637e-38
-0.54078162 -0.25409761 0.96645463 1.1434776e-38
-0.53523511 -0.25487116 0.9651202 1.171136e-38
-0.52631587 -0.25588638 0.96576512 1.2358893e-38
-0.51534224 -0.25467694 0.9657504 1.2356726e-38
-0.50563467 -0.25279403 0.96305263 1.2540752e-38
-0.47480792 -0.25047594 0.96200007 1.2359273e-38
-0.21445534 -0.25504184 0.96462995 1.2159312e-38
-0.20841652 -0.25313663 0.9625001 1.1513922e-38
-0.031517632 -0.25354925 0.96300018 1.2075471e-38
-0.029670782 -0.25686425 0.96700013 1.1983637e-38
-0.5145762 -0.24669138 0.96700013 1.2448561e-38
-0.50479519 -0.24502781 0.9636668 1.244856e-38
-0.47385201 -0.24696998 0.96280015 1.2081956e-38
-0.21237338 -0.24523415 0.96558827 1.2618471e-38
-0.20562042 -0.24439068 0.96307713 1.1788356e-38
-0.032079864 -0.24482673 0.96300006 1.1984e-38
-0.50407517 -0.23576415 0.96590495 1.254075e-38
-0.49527946 -0.23437394 0.9632414 1.2448564e-38
-0.48659846 -0.23317519 0.96229994 1.2908107e-38
-0.47558168 -0.23437136 0.96312916 1.3370882e-38
-0.21193416 -0.23990947 0.96700007 1.3632295e-38
-0.20508075 -0.23620805 0.96543503 1.1880546e-38
-0.19860972 -0.23234384 0.96200001 1.2157122e-38
-0.032978669 -0.23508999 0.96462494 1.2168387e-38
-0.50186014 -0.22973664 0.96700007 1.2447834e-38
-0.49387622 -0.22635745 0.96673942 1.2540752e-38
-0.48445863 -0.22495686 0.96409702 1.300101e-38
-0.47734174 -0.22571388 0.96604025 1.3738215e-38
-0.20258793 -0.22609693 0.96594125 1.2709954e-38
-0.19556189 -0.22432925 0.96311545 1.2433002e-38
-0.1897545 -0.22011521 0.96200007 1.270888e-38
-0.033837583 -0.22503202 0.96500009 1.2168747e-38
-0.49083957 -0.21786833 0.96700013 1.2816978e-38
-0.48430312 -0.21599172 0.96670049 1.3000649e-38
-0.47478551 -0.21559002 0.96700048 1.3646384e-38
-0.19492736 -0.21527988 0.96446174 1.2893985e-38
-0.18912198 -0.21442258 0.96200001 1.3078728e-38
-0.034706686 -0.21565156 0.96562505 1.2168744e-38
-0.48151442 -0.20939095 0.96700007 1.2910607e-38
-0.47197741 -0.20790741 0.96700007 1.4292476e-38
-0.19268407 -0.20522545 0.96523529 1.3170207e-38
-0.18691202 -0.20501089 0.96236372 1.3447877e-38
-0.036311094 -0.20417456 0.9632777 1.2260217e-38
-0.19107985 -0.19718353 0.96700013 1.3814854e-38
-0.18450533 -0.19495496 0.96375024 1.3908494e-38
-0.17935315 -0.19650134 0.96200007 1.3815933e-38
-0.03767857 -0.19517195 0.96490932 1.2075832e-38
-0.18151151 -0.18772034 0.96600008 1.4275112e-38
-0.17812231 -0.18376689 0.96600008 1.2985805e-38
-0.037819523 -0.18475813 0.96485722 1.2167668e-38
-0.038738254 -0.17591117 0.96587509 1.2259142e-38
-0.36706996 -0.16361317 0.96700007 1.6774155e-38
-0.3521392 -0.16111931 0.96657157 1.7142214e-38
-0.29882821 -0.16220495 0.96200007 1.8706995e-38
-0.04162664 -0.16493908 0.96342868 1.2350969e-38
-0.039843623 -0.16446093 0.96700013 1.2442807e-38
-0.35146236 -0.1563466 0.96662509 1.8802099e-38
-0.34511766 -0.15280592 0.96657175 1.8711716e-38
-0.33542681 -0.15314519 0.96576476 1.8989026e-38
-0.32469103 -0.15332167 0.96200001 1.926416e-38
-0.3179442 -0.15770707 0.96200007 1.796873e-38
-0.30192047 -0.15855041 0.96200007 1.8892831e-38
-0.29299644 -0.15516151 0.96230775 1.9169792e-38
-0.28870794 -0.15545814 0.96200007 1.8800291e-38
-0.042326011 -0.15506549 0.96415389 1.2534283e-38
-0.039843623 -0.15852675 0.96700007 1.253464e-38
-0.34333336 -0.14556849 0.96700013 1.87128e-38
-0.33576548 -0.14546664 0.96473372 1.8989384e-38
-0.32871321 -0.14538115 0.96200001 1.8989026e-38
-0.044083938 -0.14626697 0.96442866 1.2535355e-38
-0.34299424 -0.13733335 0.96700013 4.2370221e-39
-0.33562258 -0.13569917 0.96571469 4.7001582e-39
-0.32769963 -0.13552141 0.96216667 6.9121233e-39
-0.044819854 -0.13478372 0.96468753 1.2719396e-38
-0.045689385 -0.12522832 0.96516669 1.2903788e-38
-0.045826782 -0.11567014 0.96450007 1.2996338e-38
-0.051444553 -0.1012024 0.96200007 1.2997422e-38
-0.048359007 -0.10495055 0.96472728 1.3181095e-38
-0.051581841 -0.094711386 0.96460009 1.327401e-38
-0.053383421 -0.085033797 0.96381813 1.3458403e-38
-0.054555207 -0.074148357 0.96333331 1.3642797e-38
-0.055318538 -0.06449157 0.96376204 1.4010855e-38
-0.056558385 -0.054189164 0.96486676 1.3827544e-38
-0.056996003 -0.045730833 0.96400005 1.3919738e-38
-0.056049682 -0.037760668 0.96580011 1.3826831e-38
-0.058309857 -0.023787474 0.96400011 1.3919737e-38
-0.057658371 -0.015218233 0.96440011 1.4011576e-38
-0.062205166 -0.0036121062 0.96481818 1.4194167e-38
-0.058894761 -0.0081719942 0.96433342 1.3918673e-38
-0.063561477 0.0048293504 0.96523529 1.4010129e-38
-0.064954311 0.015142265 0.96454555 1.4009774e-38
-0.065950327 0.025366351 0.96450007 1.3551299e-38
-0.067093685 0.0351215 0.96436363 1.3825731e-38
-0.068382628 0.045591053 0.96300006 1.3549508e-38
-0.071232229 0.055184707 0.96350002 1.3640979e-38
-0.068666667 0.051711936 0.96700007 1.3640985e-38
-0.07133612 0.065848187 0.96300006 1.3640981e-38
-0.068666667 0.067818932 0.96700007 1.3640982e-38
-0.072514974 0.074714713 0.96410006 1.3456951e-38
-0.068666667 0.070362143 0.96700007 1.3732462e-38
-0.073762521 0.0841223 0.9643749 1.3456592e-38
-0.076580562 0.0947771 0.96525007 1.3364402e-38
-0.075437777 0.10481279 0.9641875 1.3456951e-38
-0.080359533 0.11481653 0.96200007 1.3549152e-38
-0.077049196 0.11475877 0.96458828 1.3364766e-38
-0.15264696 0.12903306 0.96200007 1.382061e-38
-0.08043091 0.12505023 0.96285725 1.3364772e-38
-0.078562364 0.12480578 0.96657151 1.3180742e-38
-0.15180361 0.13493654 0.96200007 2.0921871e-38
-0.081037 0.13557763 0.96381825 1.3918293e-38
-0.078839511 0.1339424 0.96700007 1.3089617e-38
-0.15096025 0.14252672 0.96200007 2.0460167e-38
-0.081399202 0.14553928 0.96520007 1.4195233e-38
-0.15096025 0.15686372 0.96200007 2.0276126e-38
-0.14544427 0.15556937 0.96236372 1.9724049e-38
-0.1363823 0.15770708 0.96200001 1.6038052e-38
-0.12818971 0.15939377 0.96200007 1.6499393e-38
-0.082058199 0.15396854 0.96500009 1.4286711e-38
-0.15004939 0.1619177 0.96700007 2.0460516e-38
-0.14359468 0.16391595 0.96592867 1.8525512e-38
-0.13492422 0.16518064 0.96354568 1.613024e-38
-0.12695342 0.16587906 0.96305263 1.6314631e-38
-0.085865766 0.16538972 0.96500009 1.2351688e-38
-0.14157203 0.17039508 0.96700007 1.7695739e-38
-0.13541426 0.17214526 0.96584624 1.5945847e-38
-0.12461349 0.17434652 0.96484011 1.6129884e-38
-0.11823814 0.17592351 0.96200007 1.6222076e-38
-0.086245067 0.17435637 0.96640009 1.2352403e-38
-0.12249795 0.18099177 0.96700007 1.6129163e-38
-0.11523344 0.18559845 0.96564025 1.5853297e-38
-0.1065539 0.18694742 0.96254551 1.6129888e-38
-0.091015287 0.18625136 0.96257144 1.5209387e-38
-0.087601289 0.18379657 0.96614295 1.2813029e-38
-0.11250677 0.19195181 0.96700013 1.5945143e-38
-0.10522082 0.19495243 0.96450025 1.5853299e-38
-0.09429042 0.19536534 0.96283877 1.5761826e-38
-0.089012347 0.19582717 0.96700013 1.4286711e-38
-0.10452654 0.20430593 0.96620041 1.566891e-38
-0.094525523 0.2047089 0.96373546 1.5668912e-38
-0.088874273 0.20483536 0.96550006 1.4563659e-38
-0.10144582 0.21165159 0.96700013 1.5577073e-38
-0.095195837 0.21268216 0.96700007 1.5485599e-38
-0.089012347 0.21108642 0.96700007 1.4933875e-38
-0.37124553 -0.38496363 0.97800004 8.7549148e-39
-0.3645578 -0.38394555 0.97700024 9.4888785e-39
-0.3552348 -0.38347718 0.97640002 1.068706e-38
-0.3443985 -0.38181463 0.97000027 1.068707e-38
-0.33468002 -0.38157165 0.97000015 1.1054768e-38
-0.24481004 -0.38470149 0.97300005 6.272502e-39
-0.012478123 -0.38334671 0.97520012 9.587991e-39
-0.36224306 -0.37939066 0.97800004 1.0501598e-38
-0.3548294 -0.37558091 0.97789681 1.087109e-38
-0.34474862 -0.37448522 0.97267646 1.096292e-38
-0.33486861 -0.37423703 0.97103095 1.12388e-38
-0.32717854 -0.37267315 0.97000015 1.1147682e-38
-0.0128344 -0.37732965 0.97600001 9.9549728e-39
-0.35456562 -0.36828366 0.97800004 1.0778196e-38
-0.34417173 -0.36509737 0.97728598 1.1146242e-38
-0.33497328 -0.36556688 0.97526312 1.1239514e-38
-0.32468131 -0.36561829 0.9717645 1.1239512e-38
-0.3188875 -0.36565769 0.97000015 1.1423546e-38
-0.25377706 -0.36486718 0.97220677 1.7600365e-39
-0.24517435 -0.36527786 0.97296864 5.9030398e-39
-0.23908365 -0.36289442 0.97400004 8.4779846e-39
-0.015302756 -0.36666971 0.97392315 9.4943464e-39
-0.34259892 -0.35621619 0.97799999 1.1238788e-38
-0.33279216 -0.35609114 0.97719997 1.1329921e-38
-0.32462615 -0.35475478 0.97222561 1.1515024e-38
-0.31879818 -0.35431284 0.97037512 1.1515729e-38
-0.26164395 -0.35364583 0.97171438 6.4503982e-39
-0.25611168 -0.35506243 0.97470003 2.4946882e-39
-0.24246047 -0.35601056 0.97605896 7.838432e-39
-0.23875302 -0.35489985 0.97414285 9.0340787e-39
-0.015879339 -0.35408944 0.9726876 9.4010592e-39
-0.3300913 -0.3472389 0.97800004 1.0042761e-38
-0.32452288 -0.34497947 0.97542876 1.0502663e-38
-0.31521875 -0.34460008 0.97203022 1.0594852e-38
-0.30736172 -0.3416329 0.97042865 1.1515739e-38
-0.26160669 -0.34620926 0.9715001 7.093967e-39
-0.25514039 -0.3448236 0.97497302 3.0478676e-39
-0.24302673 -0.34527111 0.97680008 8.3912471e-39
-0.2388529 -0.34345093 0.97266674 8.1142846e-39
-0.021259166 -0.34609923 0.97000003 9.4932604e-39
-0.017164968 -0.34544933 0.97228569 9.4928975e-39
-0.32329723 -0.33895251 0.97671437 1.1238796e-38
-0.31465697 -0.33565459 0.97544014 1.1516088e-38
-0.30495182 -0.33501142 0.97199982 1.1700126e-38
-0.29694805 -0.33283353 0.97000021 1.1884163e-38
-0.26184332 -0.33366719 0.9715001 7.1868829e-39
-0.25726017 -0.33571526 0.97519225 4.149518e-39
-0.24097581 -0.3357265 0.97666669 9.129161e-39
-0.23749903 -0.33456424 0.97473353 8.206469e-39
-0.017913416 -0.33450133 0.97311115 9.7691228e-39
-0.31118029 -0.32787156 0.97650003 1.0040949e-38
-0.30486792 -0.32484269 0.97410005 1.1054747e-38
-0.29545152 -0.32473889 0.97042835 1.1423535e-38
-0.28778836 -0.32131714 0.97000015 1.1700846e-38
-0.2633011 -0.3249706 0.9735834 7.8308174e-39
-0.25892878 -0.32751915 0.97800004 6.2660182e-39
-0.23835164 -0.32751915 0.97800004 7.5618311e-39
-0.021259166 -0.32143861 0.97000003 1.0047159e-38
-0.017803533 -0.3244465 0.97392857 1.004643e-38
-0.3037338 -0.31522608 0.97653604 1.1883803e-38
-0.29502073 -0.31546 0.97394115 1.1976709e-38
-0.28600183 -0.31469008 0.97138453 1.1975989e-38
-0.27529502 -0.31226358 0.97000015 1.2158957e-38
-0.26543069 -0.31471264 0.9727298 9.0279102e-39
-0.23749426 -0.31894535 0.97800004 8.3897925e-39
-0.021259166 -0.31463566 0.97000015 1.0415943e-38
-0.01801886 -0.31530842 0.97383332 1.0599253e-38
-0.30256283 -0.30770445 0.97770005 1.1791594e-38
-0.29455703 -0.30533534 0.97616702 1.1975991e-38
-0.28545415 -0.3050105 0.9738 1.1791601e-38
-0.27515832 -0.30469128 0.97009075 1.2159661e-38
-0.26620281 -0.30488953 0.97327787 1.0040986e-38
-0.23577949 -0.30951416 0.97800004 1.0137178e-38
-0.022392988 -0.30329746 0.97000021 1.1154243e-38
-0.019370098 -0.30708334 0.97483343 1.1153878e-38
-0.2910805 -0.29793954 0.97800004 1.2345496e-38
-0.28447202 -0.29530001 0.97574085 1.1883793e-38
-0.27495986 -0.2948015 0.97266644 1.197491e-38
-0.2664746 -0.29538167 0.97372401 1.0409408e-38
-0.23215009 -0.29167578 0.97000003 8.2050383e-39
-0.022982232 -0.29537737 0.97484207 1.1431545e-38
-0.2830283 -0.28835788 0.97733337 1.1975977e-38
-0.27493897 -0.28691968 0.97635746 1.1883437e-38
-0.26763043 -0.2885955 0.976125 1.1240608e-38
-0.23215009 -0.28912467 0.97000003 8.1128567e-39
-0.024224823 -0.28529802 0.97400004 1.1615584e-38
-0.23062755 -0.27403176 0.97075003 1.0875832e-38
-0.22874863 -0.27381808 0.97000003 1.262755e-38
-0.025689099 -0.27472043 0.97438478 1.1891806e-38
-0.23147398 -0.26493403 0.9703334 1.0049301e-38
-0.22726934 -0.26409271 0.97042882 1.4745878e-38
-0.026443919 -0.26532477 0.9731667 1.1799967e-38
-0.53590107 -0.25085816 0.97000009 1.1620244e-38
-0.52518642 -0.25170854 0.97000021 1.2451074e-38
-0.23202273 -0.25551549 0.97330755 1.2629337e-38
-0.22525096 -0.25483885 0.97222215 1.3179258e-38
-0.21854423 -0.25255889 0.97000003 1.1794523e-38
-0.027798751 -0.2546517 0.97280014 1.2075478e-38
-0.54361093 -0.24511944 0.97311103 1.1618809e-38
-0.5352152 -0.24485774 0.97269994 1.1895396e-38
-0.52564633 -0.24499948 0.97271037 1.2726597e-38
-0.51539898 -0.24255311 0.9712857 1.2448558e-38
-0.23230647 -0.24395418 0.9745456 1.0047143e-38
-0.22529113 -0.24473643 0.97428191 1.2995231e-38
-0.21794216 -0.24458745 0.97164297 1.2438074e-38
-0.028277321 -0.24541166 0.97427791 1.2076198e-38
-0.54374272 -0.23559488 0.97563648 1.152661e-38
-0.53472096 -0.23521206 0.97427762 1.1895391e-38
-0.52510017 -0.23482797 0.97507161 1.2542922e-38
-0.51532191 -0.23543739 0.97293091 1.244927e-38
-0.50800908 -0.23249026 0.97000009 1.2357077e-38
-0.23204654 -0.23568776 0.97762513 1.0415564e-38
-0.22551747 -0.23469333 0.97609115 1.3548758e-38
-0.21502043 -0.23501502 0.97269696 1.3265669e-38
-0.20748946 -0.23215011 0.97000015 1.2431936e-38
-0.031463567 -0.23129973 0.97000003 1.2075835e-38
-0.029831868 -0.23694831 0.97225004 1.2168755e-38
-0.54169267 -0.22651981 0.9780001 1.1619165e-38
-0.53559899 -0.22592309 0.97700012 1.1987939e-38
-0.52362216 -0.22716336 0.97705257 1.2725154e-38
-0.51467389 -0.22551538 0.97550011 1.235672e-38
-0.50465721 -0.22486058 0.97281468 1.2540752e-38
-0.4972575 -0.22296625 0.9703334 1.2724784e-38
-0.47499123 -0.22473763 0.97030014 1.3831144e-38
-0.23063523 -0.22463356 0.97800004 1.0324445e-38
-0.22632849 -0.22495981 0.97755015 1.3731354e-38
-0.2142337 -0.22626637 0.97538483 1.2990154e-38
-0.20641495 -0.22311722 0.97093773 1.3540796e-38
-0.031528439 -0.22495615 0.97200006 1.2168383e-38
-0.53671992 -0.21863189 0.97800004 1.1527678e-38
-0.5211156 -0.21657419 0.9780001 1.2266336e-38
-0.51378202 -0.2156105 0.97755575 1.2357077e-38
-0.50467724 -0.21506727 0.97527307 1.2540391e-38
-0.49505305 -0.21434276 0.9716363 1.2724065e-38
-0.48662233 -0.21110353 0.97000015 1.2725864e-38
-0.47739586 -0.21106103 0.97000009 1.3370876e-38
-0.23178788 -0.21282554 0.97420007 6.54661e-39
-0.22710334 -0.21462953 0.97604173 1.2810124e-38
-0.21215971 -0.21589336 0.97690916 1.3448593e-38
-0.20567377 -0.21505579 0.97346663 1.2893609e-38
-0.19898582 -0.21174131 0.97000015 1.3629741e-38
-0.032406714 -0.2149176 0.97283334 1.2168753e-38
-0.50323963 -0.20692413 0.97687507 1.2724069e-38
-0.49491954 -0.20514208 0.97503585 1.281626e-38
-0.48491371 -0.20451567 0.97242427 1.3000653e-38
-0.47461143 -0.20374295 0.97079968 1.3646385e-38
-0.46855205 -0.20323764 0.97000003 1.0698283e-38
-0.23063523 -0.20148429 0.97800004 7.6536848e-39
-0.21005809 -0.20748596 0.97800004 1.3170566e-38
-0.20416746 -0.20587285 0.97533351 1.3446424e-38
-0.19723366 -0.20339166 0.972 1.335459e-38
-0.032301497 -0.20489661 0.97200012 1.2351702e-38
-0.49319521 -0.19644089 0.97799999 1.2907744e-38
-0.48495141 -0.19534898 0.97734404 1.3183969e-38
-0.47580788 -0.19576633 0.97686696 1.346308e-38
-0.23292157 -0.19919795 0.97800004 3.6903657e-39
-0.20234168 -0.19805479 0.9780001 1.5014825e-38
-0.1956089 -0.19414085 0.97342849 1.3815212e-38
-0.18963176 -0.19218287 0.97000003 1.3630483e-38
-0.033005971 -0.1948038 0.97206682 1.2167668e-38
-0.48426387 -0.18838976 0.97800004 1.3091774e-38
-0.47687474 -0.1842224 0.97799999 1.3461275e-38
-0.19352928 -0.18539779 0.97570843 1.4277256e-38
-0.18536496 -0.18410937 0.97289997 1.4460929e-38
-0.17923042 -0.18207023 0.97200006 1.3721934e-38
-0.034314688 -0.18536031 0.97300017 1.2167302e-38
-0.47395068 -0.17693618 0.97800004 1.3922611e-38
-0.4686439 -0.17644881 0.9780001 1.217307e-38
-0.19162443 -0.17790635 0.97800004 1.409215e-38
-0.18477052 -0.17450203 0.97575021 1.4369101e-38
-0.17822215 -0.17423293 0.97477776 1.4183981e-38
-0.036057018 -0.17408031 0.97513646 1.2350617e-38
-0.37191314 -0.16196111 0.97750008 1.6958905e-38
-0.36458254 -0.16297673 0.97253847 1.7050371e-38
-0.35828781 -0.16185312 0.97000015 1.73266e-38
-0.33523557 -0.16033006 0.97800004 1.7602468e-38
-0.32350725 -0.16303575 0.97366667 1.8521909e-38
-0.18355428 -0.16813129 0.9772501 1.4460936e-38
-0.1790092 -0.16644481 0.97700012 1.2619924e-38
-0.036662508 -0.16441037 0.97529423 1.2535359e-38
-0.37326288 -0.15377365 0.97799999 1.8252532e-38
-0.36497307 -0.15507288 0.9735769 1.8435121e-38
-0.35634434 -0.15426336 0.97047997 1.8527677e-38
-0.34269777 -0.1581682 0.97000003 1.8248928e-38
-0.33497784 -0.15786444 0.97600007 1.8986843e-38
-0.32569045 -0.1581682 0.97000003 1.8432575e-38
-0.040537942 -0.15233749 0.97350001 1.2718304e-38
-0.038863607 -0.15536189 0.97555566 1.2717947e-38
-0.3732788 -0.14565407 0.97733337 1.6315709e-38
-0.36515996 -0.14528964 0.97634405 1.5117169e-38
-0.35549861 -0.14515349 0.97400004 1.6869239e-38
-0.3479417 -0.14413717 0.97000021 1.769793e-38
-0.041512623 -0.14470646 0.97440004 1.2535722e-38
-0.038582101 -0.14746936 0.97800004 1.2719034e-38
-0.37124553 -0.13975294 0.97800004 0
-0.36610124 -0.13918135 0.9780001 0
-0.35408059 -0.13841058 0.97700006 1.8367099e-40
-0.3450788 -0.13554844 0.97000009 8.2723693e-40
-0.33929631 -0.13180684 0.97000003 6.4392467e-40
-0.041695435 -0.13535558 0.97511113 1.2903431e-38
-0.04283639 -0.12526901 0.97340006 1.2904146e-38
-0.044075876 -0.11346269 0.97311115 1.3089254e-38
-0.045445401 -0.10416718 0.9728573 1.3456963e-38
-0.050288007 -0.093755335 0.97225004 1.3550235e-38
-0.0475288 -0.095302366 0.97564292 1.3550235e-38
-0.050955374 -0.08453083 0.97199994 1.3550598e-38
-0.048540033 -0.08595217 0.97628576 1.3734269e-38
-0.051108208 -0.074961573 0.97166675 1.3919026e-38
-0.048820689 -0.075375803 0.977 1.3826822e-38
-0.051226191 -0.064884365 0.97391677 1.3919741e-38
-0.048833184 -0.066822387 0.9772501 1.3735352e-38
-0.053010818 -0.055247396 0.97415394 1.4011578e-38
-0.053896118 -0.044181436 0.97353858 1.4011932e-38
-0.055391397 -0.03494104 0.9721002 1.4010504e-38
-0.056974571 -0.022959901 0.97000003 1.3920097e-38
-0.057062671 -0.015323695 0.97150004 1.410305e-38
-0.060376033 -0.0017007333 0.97000003 1.4101967e-38
-0.058006696 -0.0048409537 0.97466671 1.3918295e-38
-0.060619 0.0057096048 0.97000015 1.4102319e-38
-0.058220789 0.0055198916 0.97536367 1.3918292e-38
-0.061870463 0.015853874 0.97213352 1.4009411e-38
-0.057975717 0.013424104 0.97733337 1.3917573e-38
-0.062411651 0.025074311 0.97362512 1.3642428e-38
-0.0639266 0.03534843 0.97406667 1.373318e-38
-0.065393887 0.044332944 0.97547382 1.3733539e-38
-0.067408599 0.054610632 0.97335726 1.3640985e-38
-0.068266906 0.064095348 0.97477788 1.3640623e-38
-0.07058043 0.079084098 0.97000003 1.3182158e-38
-0.068325259 0.075633623 0.97536367 1.3456949e-38
-0.071143359 0.086055018 0.97187507 1.3456592e-38
-0.069447778 0.081451103 0.97800004 1.3826433e-38
-0.07332056 0.095176712 0.97370005 1.3364402e-38
-0.072380148 0.10371923 0.97345465 1.3456593e-38
-0.07345999 0.11509668 0.97250009 1.3456599e-38
-0.075506419 0.12499569 0.97324997 1.3273648e-38
-0.07702785 0.13412258 0.97336376 1.3273648e-38
-0.080784835 0.14201123 0.97000003 1.3090333e-38
-0.078691043 0.14487809 0.97472733 1.327365e-38
-0.081518315 0.15877777 0.97200006 1.4101594e-38
-0.07875666 0.15323432 0.97650003 1.3272925e-38
-0.15242107 0.1660748 0.97327286 1.8156704e-38
-0.14708388 0.1675099 0.97081822 1.7880483e-38
-0.082695417 0.16539577 0.97250009 1.3826814e-38
-0.15254863 0.17384301 0.97509098 1.8618059e-38
-0.14497162 0.17556317 0.97290307 1.6497569e-38
-0.13451879 0.17794213 0.97116673 1.5945493e-38
-0.12783846 0.17886047 0.97000003 1.6129897e-38
-0.082540415 0.17511062 0.97318757 1.3549863e-38
-0.15163988 0.18205452 0.9772501 1.5669621e-38
-0.14464627 0.18455352 0.97496176 1.4839494e-38
-0.13479136 0.18512528 0.97313315 1.5761104e-38
-0.12561169 0.18584007 0.97182602 1.585366e-38
-0.1199017 0.18793103 0.97000003 1.5945492e-38
-0.084123708 0.18557768 0.97193354 1.2720107e-38
-0.14280684 0.19485846 0.97611767 1.4930269e-38
