# .PCD v0.7 - Point Cloud Data file format
VERSION 0.7
FIELDS x y z rgb
SIZE 4 4 4 4
TYPE F F F F
COUNT 1 1 1 1
WIDTH 1039
HEIGHT 1
VIEWPOINT 0 0 0 1 0 0 0
POINTS 1039
DATA ascii
0.49651769 -0.4337396 2.1700001 2.221737e-38
0.5022248 -0.42232537 2.1700001 2.2493951e-38
-0.036144968 -0.40900883 2.1700001 1.3637312e-38
-0.014584811 -0.41535005 2.1700001 1.6680934e-38
0.50877738 -0.40900886 2.1700001 2.2401398e-38
-0.037413213 -0.38935107 2.1700001 1.4743357e-38
0.51612681 -0.39086318 2.1700001 2.2493953e-38
0.5231508 -0.38237569 2.1700001 2.2401402e-38
-0.043754432 -0.37096149 2.1700001 1.7142631e-38
-0.0399497 -0.37286386 2.1700001 1.7050434e-38
0.52980912 -0.37191269 2.1700001 2.2493594e-38
-0.047015641 -0.34922022 2.1700001 1.9262755e-38
0.53266263 -0.3486087 2.1700001 2.2494672e-38
0.54217452 -0.342426 2.1700001 2.258615e-38
-0.046607986 -0.32958505 2.1700001 1.8341172e-38
-0.0399497 -0.32149997 2.1700001 8.3869885e-39
0.53287405 -0.3291094 2.1700001 2.2863091e-38
0.54217452 -0.32340235 2.1700001 2.295385e-38
0.53836977 -0.31579286 2.1700001 2.2863091e-38
0.54471099 -0.30881751 2.1700001 2.3138956e-38
0.55327171 -0.29137918 2.1700001 2.2863091e-38
0.56119817 -0.28345263 2.1700001 2.2678344e-38
0.55739349 -0.27013606 2.1700001 2.3139674e-38
0.56174177 -0.26877722 2.1700001 2.2862732e-38
0.55739343 -0.25681949 2.1700001 2.3139674e-38
0.56636178 -0.2486665 2.1700001 2.2954925e-38
0.57319766 -0.22930835 2.1700001 2.2954925e-38
0.57388061 -0.20926034 2.1700001 2.2955285e-38
0.57641709 -0.19784614 2.1700001 2.2954927e-38
0.58293957 -0.18887784 2.1700001 2.3047121e-38
0.5851137 -0.17094125 2.1700001 2.2955644e-38
0.58620071 -0.14865637 2.1700001 2.2955644e-38
0.61256206 -0.15028696 2.1699998 2.2955285e-38
0.62207389 -0.1483846 2.1700001 2.2770897e-38
0.59652787 -0.13561158 2.1700001 2.2954568e-38
0.61218154 -0.13405344 2.1700003 2.2955285e-38
0.62316096 -0.12963271 2.1700001 2.2770538e-38
0.61700094 -0.11287376 2.1700001 2.3046762e-38
0.62630141 -0.10864627 2.1699998 2.2954927e-38
0.63102621 -0.089858845 2.1700001 2.2770538e-38
0.6340735 -0.070680238 2.1700001 2.2678701e-38
0.64278853 -0.069542065 2.1700001 2.2586148e-38
0.63577098 -0.055929579 2.1700001 2.258579e-38
0.64431697 -0.051656574 2.1700001 2.2493595e-38
0.65043646 -0.032167293 2.1699996 2.221737e-38
0.66368818 -0.029248886 2.1700001 2.1940783e-38
0.65631652 -0.0171213 2.1700001 2.1848587e-38
0.66334057 -0.0092191622 2.1700001 2.2032623e-38
0.65631652 0.013316567 2.1700001 2.1940423e-38
0.66818726 0.010577159 2.1699994 2.1940422e-38
0.6829496 0.0171213 2.1700001 2.1294342e-38
0.67116725 0.030131031 2.1699991 2.1292889e-38
0.68616909 0.033510923 2.1700001 2.1108499e-38
0.68952149 0.051882736 2.1699996 1.9999253e-38
0.13887277 0.074192308 2.1700001 1.8439126e-40
0.15028697 0.07477764 2.1700001 2.2090896e-39
0.16768004 0.073105238 2.1700001 1.4558964e-38
0.18643193 0.0741923 2.1700001 2.3504474e-38
0.45086089 0.077997036 2.1700001 2.1380735e-38
0.51554137 0.066582836 2.1700001 2.3509886e-38
0.69463557 0.070931099 2.1700001 1.9905976e-38
0.70366436 0.071233071 2.1700001 1.9629387e-38
0.15333076 0.082562707 2.1700001 1.1049196e-39
0.16455472 0.086557686 2.1700001 6.4465335e-40
0.18706605 0.097020708 2.1700001 1.381854e-39
0.27279937 0.086367451 2.1700001 1.8063127e-38
0.28915974 0.085606501 2.1700001 2.1560776e-38
0.31008577 0.089411236 2.1700001 2.3410828e-38
0.32747883 0.089954764 2.1700001 2.3319721e-38
0.34432837 0.085606501 2.1700001 2.3414084e-38
0.37286389 0.085606501 2.1700001 2.3227895e-38
0.3880828 0.085606501 2.1700001 1.7697957e-38
0.6956321 0.086874746 2.1700001 2.0460233e-38
0.70439458 0.090103008 2.1700001 2.0552433e-38
0.35193783 0.11794673 2.1700001 2.8642232e-39
0.37096149 0.1084349 2.1700001 0
0.71414846 0.10539112 2.1700001 1.9357132e-38
0.72099698 0.11223963 2.1700001 2.0093622e-38
0.20355323 0.13506803 2.1700001 1.4758938e-39
0.31769523 0.13887277 2.1700001 3.4990955e-39
0.33367512 0.13582897 2.1700001 7.100518e-39
0.34179187 0.12745857 2.1700001 6.4602129e-39
0.3760345 0.13633628 2.1700001 1.3178594e-38
0.38618043 0.12840974 2.1700001 1.4375669e-38
-0.11033728 0.1540917 2.1700001 9.3945431e-39
-0.088903934 0.15231617 2.1700003 1.1514674e-38
-0.071338758 0.15440875 2.1700001 1.215934e-38
-0.050412714 0.15123816 2.1700001 1.2438078e-38
-0.038047336 0.15028697 2.1700001 1.234624e-38
-0.0049461531 0.15637454 2.1700001 1.2068949e-38
0.0095118331 0.15789643 2.1700001 1.1150229e-38
0.029486684 0.15314052 2.1700001 1.3180021e-38
0.058973365 0.15599406 2.1700001 1.1337183e-38
0.073346801 0.15028697 2.1700001 1.1152091e-38
0.090362422 0.15123816 2.1700001 1.4560438e-38
0.10992372 0.14863272 2.1699996 1.2157521e-38
0.13091742 0.15236227 2.1700001 1.2802551e-38
0.14886019 0.15456729 2.1700001 1.1785146e-38
0.16931064 0.15028697 2.1700001 1.0496938e-38
0.18960254 0.15028697 2.1700001 4.4218155e-39
0.292584 0.14496033 2.1700001 1.7499065e-39
0.31117284 0.1475693 2.1700001 6.818106e-39
0.3284753 0.14521399 2.1700001 7.6478989e-39
0.35139433 0.14539516 2.1700001 1.3263161e-38
0.3646203 0.14394575 2.1700001 1.519925e-38
-0.11147869 0.16664732 2.1700001 1.0502354e-38
-0.090045355 0.16296944 2.1700001 1.1974954e-38
-0.070387565 0.16170117 2.1700001 1.2712528e-38
-0.02599901 0.16423766 2.1700001 1.3451159e-38
-0.011889791 0.16360354 2.1700001 1.3357882e-38
0.75714195 0.27774554 2.1700001 9.1263276e-39
0.76475143 0.27964789 2.1700001 9.7709767e-39
0.75904429 0.28915972 2.1700001 9.8638954e-39
0.76942092 0.29054329 2.1699996 1.01412e-38
0.78187269 0.28345263 2.1700001 9.8653304e-39
0.76855618 0.31008577 2.1699998 1.0049727e-38
0.77259862 0.32768264 2.1700001 1.0234124e-38
0.78350335 0.3318271 2.1700001 1.0603272e-38
0.77806795 0.342426 2.1700001 1.060327e-38
0.78533155 0.34709546 2.1700001 1.0787658e-38
0.79233569 0.37476626 2.1700001 1.1985119e-38
0.80723757 0.3760345 2.1700001 1.3090748e-38
0.82562709 0.37476623 2.1700001 1.4104903e-38
0.7946704 0.38929337 2.1700001 1.2537573e-38
0.80755466 0.39283872 2.1700001 1.3551722e-38
0.7951892 0.40900883 2.1700001 1.309182e-38
0.80872965 0.40788984 2.1700001 1.3920147e-38
0.82718366 0.41039237 2.1700001 1.5026496e-38
0.79633063 0.42498872 2.1700001 1.3185458e-38
0.81015992 0.4321681 2.1699996 1.4381486e-38
0.82562721 0.42993483 2.1700001 1.5210885e-38
0.81339771 0.45058918 2.1700001 1.5118686e-38
0.8304888 0.45149502 2.1699998 1.5211245e-38
0.81339771 0.46553627 2.1700001 1.5395993e-38
0.83545607 0.46798217 2.1700001 1.5395277e-38
0.84626055 0.47105524 2.1700001 1.5395277e-38
0.81307155 0.49157158 2.1700001 1.5947734e-38
0.8375169 0.48748147 2.1700001 1.5671861e-38
0.84516972 0.48821649 2.1700001 1.5671861e-38
0.81421298 0.50412714 2.1700001 1.6132848e-38
0.83894372 0.5022248 2.1700001 1.5855894e-38
0.85135049 0.50842816 2.1699996 1.6131759e-38
0.86367446 0.51363903 2.1700001 1.6131051e-38
0.85796738 0.52505314 2.1700001 1.6684211e-38
0.86938161 0.53139436 2.1699998 1.6869324e-38
0.88079578 0.53836977 2.1700001 1.686969e-38
0.62207389 0.55739343 2.1700001 4.7956427e-39
0.81611532 0.55358869 2.1700001 1.6961517e-38
0.85352862 0.55612516 2.1700001 1.7237371e-38
0.87118393 0.55098546 2.1699998 1.8158607e-38
0.88364935 0.55168635 2.1700001 1.7882386e-38
0.63229913 0.56690526 2.1700001 1.4931391e-38
0.64109755 0.57451475 2.1700001 1.5206183e-38
0.83725262 0.56796211 2.1700001 1.6868963e-38
0.85035789 0.56880772 2.1699994 1.6592737e-38
0.86612046 0.56690526 2.1700001 1.8435569e-38
0.88079578 0.56119817 2.1700001 1.8619589e-38
0.6461705 0.58994502 2.1700001 1.4283861e-38
0.7533372 0.59734315 2.1700001 1.3640647e-38
0.76961309 0.59713179 2.1700001 1.2806918e-38
0.79032761 0.59713179 2.1700001 1.612739e-38
0.80089635 0.59734309 2.1700001 1.5851534e-38
0.83894372 0.58022183 2.1700001 1.6499094e-38
0.85302109 0.58859223 2.1699998 1.6224302e-38
0.86285925 0.58620071 2.1700001 1.6592006e-38
0.64299995 0.60685503 2.1700001 1.3915075e-38
0.73023707 0.61229032 2.1700001 1.4929187e-38
0.74445951 0.60558671 2.1700001 1.3731392e-38
0.7970916 0.61065972 2.1700001 1.5020684e-38
0.80301011 0.60939145 2.1700001 1.483629e-38
0.85416263 0.61065972 2.1700003 1.456152e-38
0.64109755 0.63158572 2.1700001 1.6776037e-38
0.67724252 0.6372928 2.1700001 1.1331415e-38
0.69225007 0.63433361 2.1700001 1.1238131e-38
0.70958281 0.63006395 2.1700001 1.2438107e-38
0.72226524 0.62334216 2.1700001 1.4834493e-38
0.7970916 0.62778103 2.1700001 1.3362257e-38
0.8070426 0.62997609 2.1700001 1.0043943e-38
0.83133423 0.63348812 2.1700001 9.7640613e-39
0.85178477 0.62682986 2.1700001 1.410018e-38
0.65631652 0.64299989 2.1700001 1.2812688e-38
0.66630399 0.6425243 2.1700001 1.1240656e-38
0.94623721 0.69664663 2.1700001 1.050638e-38
0.93501318 0.70672917 2.1700001 1.0230519e-38
0.94319338 0.71262658 2.1700001 9.8635311e-39
0.6144644 0.73241115 2.1700001 4.6976611e-39
0.95054924 0.72289932 2.1700001 1.0418507e-38
0.96232581 0.73132408 2.1700001 1.1617414e-38
0.61826915 0.74763012 2.1700001 3.6878252e-39
0.96742672 0.7507031 2.1699994 1.1986552e-38
0.62207389 0.77045852 2.1700001 2.8595079e-39
0.97167033 0.77016568 2.1699994 1.2446088e-38
0.98946846 0.77307427 2.1700001 1.3460593e-38
0.62424803 0.78893864 2.1700001 4.8867481e-39
0.973885 0.78643841 2.1700003 1.2721591e-38
0.99113303 0.78948218 2.1699994 1.3183283e-38
0.62756968 0.81146508 2.1700001 6.546624e-39
0.89411235 0.80850583 2.1700001 8.0177758e-39
0.99269968 0.80940109 2.1700001 1.26283e-38
0.6290493 0.83006597 2.1700001 6.9150436e-39
0.88460052 0.83133423 2.1700001 9.4929073e-39
0.97819692 0.83209527 2.1700001 8.6671347e-39
0.9909519 0.83115309 2.1699996 9.4018215e-39
1.0025473 0.83323658 2.1700001 9.40109e-39
0.63111019 0.85178477 2.1700001 7.46713e-39
0.88460052 0.85606503 2.1700001 6.0831137e-39
0.9955231 0.84947991 2.1700001 8.941565e-39
1.0033082 0.85340166 2.1700001 8.9422839e-39
0.31601381 -0.86518407 2.1980002 1.9175262e-38
0.3276934 -0.86413312 2.18925 1.9267456e-38
0.31729841 -0.85105336 2.1980002 1.945185e-38
0.32805905 -0.849702 2.187613 1.9451847e-38
0.31794071 -0.83049965 2.1980002 1.9728074e-38
0.33074173 -0.83044231 2.1939354 1.9544402e-38
0.34485608 -0.82546878 2.1865456 1.9636599e-38
0.31794071 -0.81508434 2.1980002 1.9819909e-38
0.33222246 -0.81213737 2.1980002 1.9820272e-38
0.34668332 -0.81049061 2.1869164 1.9912467e-38
0.33358264 -0.79060131 2.1980002 2.0096496e-38
0.34571522 -0.78944242 2.1884801 2.0188333e-38
0.33624637 -0.77365571 2.1980002 2.0188693e-38
0.35033208 -0.77034807 2.1919999 2.0281249e-38
0.3658728 -0.76461071 2.185077 2.0373441e-38
0.35412174 -0.75083256 2.1953752 2.046528e-38
0.36853343 -0.74819988 2.1872661 2.046564e-38
0.37089664 -0.73082745 2.1912799 2.064967e-38
0.38101336 -0.73330712 2.184 2.0465998e-38
0.37382123 -0.71094018 2.1924002 2.0834066e-38
0.38522559 -0.70688504 2.184 2.0650393e-38
0.40015975 -0.7026729 2.184 2.092626e-38
0.37767503 -0.69561571 2.1980002 2.0650393e-38
0.39059398 -0.69073999 2.1948001 2.0926261e-38
0.40364432 -0.69064617 2.1878183 2.0926261e-38
0.39116341 -0.66863906 2.1980007 2.1018458e-38
0.4056991 -0.66855198 2.1893337 2.101882e-38
0.39309034 -0.64808512 2.1980002 2.1479069e-38
0.41247615 -0.65059012 2.1931546 2.1111371e-38
0.42237449 -0.64286083 2.1933334 2.1202852e-38
0.37960193 -0.63588142 2.1980002 2.1755299e-38
0.39088812 -0.63175231 2.1980002 2.138652e-38
0.41568774 -0.63080138 2.1980002 2.1295405e-38
0.4251948 -0.62896436 2.1884212 2.1295407e-38
0.41717675 -0.61564875 2.1980002 2.138796e-38
0.42871577 -0.61080468 2.1922967 2.1479436e-38
0.4322508 -0.58995646 2.1936932 2.166347e-38
0.43437171 -0.56911242 2.195667 2.1756025e-38
0.44381416 -0.56653237 2.1872308 2.1571995e-38
0.43630826 -0.55082196 2.1980002 2.1940773e-38
0.44694048 -0.54873943 2.1910007 2.184858e-38
0.44965938 -0.52977806 2.193656 2.1940419e-38
-0.01340248 -0.50355029 2.184 1.6129196e-38
0.45267329 -0.51252848 2.1920006 2.2124448e-38
0.46053228 -0.50292438 2.1980002 2.2216996e-38
-0.01340248 -0.49972105 2.184 1.6129196e-38
0.45667845 -0.49714363 2.1980002 2.2309196e-38
0.46749911 -0.49001536 2.1920009 2.2217004e-38
0.47162861 -0.46833146 2.196501 2.2217363e-38
0.48057467 -0.46908686 2.184 2.2124807e-38
0.4729501 -0.45132589 2.1980004 2.2402114e-38
0.48875481 -0.44885981 2.1910005 2.212517e-38
-0.025656177 -0.42390129 2.184 1.5112878e-38
-0.01340248 -0.43462327 2.184 1.6222112e-38
0.47980142 -0.42392093 2.1980002 2.2493588e-38
0.49146539 -0.42940721 2.1930008 2.2401756e-38
-0.026804967 -0.409733 2.1839995 1.4559334e-38
-0.015529858 -0.40696737 2.184 1.6589094e-38
0.49418741 -0.41219833 2.194957 2.2585785e-38
0.50597805 -0.40629399 2.1868002 2.2585427e-38
-0.027272064 -0.39170915 2.194706 1.4928114e-38
-0.015376031 -0.39015207 2.1924002 1.6680925e-38
0.49521682 -0.39116341 2.1980002 2.2585788e-38
0.50910497 -0.38932037 2.1921673 2.2494309e-38
0.52269673 -0.38101336 2.184 2.258615e-38
-0.040207438 -0.3637816 2.184 1.6129562e-38
-0.03264093 -0.37070373 2.191 1.4744453e-38
-0.017342219 -0.377675 2.1980002 1.6956792e-38
0.49618018 -0.37863848 2.1980002 2.2586148e-38
0.51310658 -0.37255856 2.1962509 2.2586147e-38
0.52688503 -0.36769745 2.1903005 2.258579e-38
-0.041816473 -0.34912357 2.1882 1.6311797e-38
-0.036611356 -0.35262513 2.1980004 1.4838448e-38
0.51564199 -0.35108361 2.1980002 2.2678701e-38
0.5260089 -0.35029402 2.1914668 2.2586148e-38
-0.041893795 -0.33480427 2.1924 1.5204711e-38
0.51787329 -0.3352052 2.1933336 2.2770894e-38
0.52746254 -0.32873055 2.190696 2.2770895e-38
0.53165305 -0.31111598 2.1952007 2.3047121e-38
0.54323155 -0.30514726 2.18575 2.3047121e-38
0.5316354 -0.2903859 2.1980007 2.2954927e-38
0.54666662 -0.28892654 2.1886673 2.2954925e-38
0.53298426 -0.27053863 2.1980007 2.2955285e-38
0.54918402 -0.26961765 2.1922357 2.2954925e-38
0.5356819 -0.25627947 2.1980002 2.3323702e-38
0.55077952 -0.24947888 2.1947343 2.2954927e-38
0.56204683 -0.24666071 2.1860001 2.2770538e-38
0.55129319 -0.22831723 2.1962507 2.3047121e-38
0.56561869 -0.23002845 2.1858261 2.3047119e-38
0.55038738 -0.21185905 2.1980004 2.3139315e-38
0.56793851 -0.20939258 2.1928155 2.3231151e-38
0.55543274 -0.1922096 2.1980002 2.3231151e-38
0.56975067 -0.19056194 2.1956677 2.3139315e-38
0.58177704 -0.18681416 2.184 2.3139674e-38
0.55687803 -0.1714953 2.1980002 2.3324421e-38
0.56874204 -0.17174788 2.1974623 2.304748e-38
0.5817306 -0.17023902 2.1890001 2.304748e-38
0.57036638 -0.15393896 2.1980004 2.3139315e-38
0.5828197 -0.15019287 2.1933336 2.3139315e-38
0.57614708 -0.13681084 2.1980002 2.3509168e-38
0.58966118 -0.12970637 2.1910002 2.2955284e-38
0.61077011 -0.12557785 2.184 2.286309e-38
0.59312606 -0.10941431 2.1895995 2.304748e-38
0.6101042 -0.10896799 2.1839995 2.2954568e-38
0.62225801 -0.10339056 2.184 2.3046403e-38
0.59441042 -0.09161979 2.1943161 2.2955284e-38
0.61096448 -0.090791985 2.1921668 2.304748e-38
0.62463534 -0.087714687 2.1861539 2.2954927e-38
0.59772855 -0.075920388 2.1980002 2.2862732e-38
0.60890448 -0.071938097 2.1980004 2.2862374e-38
0.62612516 -0.070789248 2.1878185 2.2678342e-38
0.60807872 -0.051200848 2.1980002 2.2862372e-38
0.63222229 -0.052273192 2.1943483 2.2678342e-38
0.64146882 -0.043143831 2.1875 2.2493595e-38
0.6089046 -0.036611352 2.1980002 2.2585427e-38
0.64634824 -0.028102096 2.1918752 2.2309566e-38
0.65449691 -0.0091144843 2.191 2.2216652e-38
0.66055077 -0.0076585598 2.184 2.1848949e-38
0.65170819 0.010099888 2.1906958 2.2032256e-38
0.66055077 0.0038292799 2.184 2.2125173e-38
0.65462559 0.027388413 2.1947694 2.1292524e-38
0.66192234 0.030367296 2.1875 2.1200327e-38
0.11754172 0.059734315 2.1980002 6.8080236e-39
0.12888065 0.055782296 2.1942668 1.6953169e-38
0.14194928 0.058449708 2.1980004 2.0459501e-38
0.6559763 0.046521194 2.1980002 2.0274753e-38
0.66903996 0.050643094 2.1877835 2.0091083e-38
0.68352646 0.051695276 2.184 1.9907055e-38
0.11677095 0.068983495 2.1980002 1.4708225e-39
0.12913182 0.070416197 2.1839993 2.0250641e-39
0.15029924 0.066710472 2.1868 1.4739755e-38
0.17040297 0.067650616 2.184 2.0827566e-38
0.18979728 0.0709325 2.1868 1.9999964e-38
0.27371377 0.07778839 2.191 2.2028276e-38
0.29096395 0.079003446 2.1980002 2.2304119e-38
0.31167823 0.077558257 2.1980002 2.2763662e-38
0.32902044 0.077558264 2.1980002 2.3226081e-38
0.3491995 0.077290632 2.1980002 2.3413363e-38
0.36979222 0.077251703 2.1980002 2.2950222e-38
0.38923648 0.077076532 2.1980002 2.3321171e-38
0.67387134 0.069891609 2.1922731 1.990597e-38
0.686629 0.071118809 2.1862104 1.9905973e-38
0.13333204 0.084274158 2.1902223 6.4537501e-40
0.15075338 0.091050081 2.1930592 7.3649164e-40
0.16811839 0.094625644 2.1900001 9.2051997e-40
0.26996425 0.084244154 2.184 1.5574227e-38
0.28911063 0.082329519 2.184 2.0087447e-38
0.31017169 0.084244162 2.184 2.3224996e-38
0.3306177 0.084090061 2.1855557 2.3319355e-38
0.35037914 0.082329519 2.184 2.3320448e-38
0.37096152 0.082646176 2.1924 2.3227531e-38
0.39116344 0.082857274 2.1980002 2.1290387e-38
0.40465182 0.082857274 2.1980002 1.3082733e-38
0.67802191 0.082593396 2.191 2.1198517e-38
0.6871472 0.085262857 2.1878183 2.0829017e-38
0.12332246 0.11176097 2.1980002 9.4018243e-39
0.15299693 0.10867792 2.1980002 1.836766e-40
0.1714526 0.10980804 2.1974409 1.0123597e-39
0.19051453 0.10969316 2.1952007 1.3815009e-39
0.2020608 0.11156706 2.1868 1.1052938e-39
0.37960193 0.11368789 2.1980002 9.66394e-39
0.38223457 0.11525273 2.191 8.5611741e-39
-0.064872757 0.13552624 2.1980004 1.0042114e-38
-0.048481204 0.13360904 2.1904168 1.2255882e-38
-0.036553055 0.13465995 2.1945002 1.3455524e-38
0.094242848 0.13593943 2.184 1.2533951e-38
0.10861509 0.13339494 2.1910005 1.1978578e-38
0.13167241 0.13552624 2.1980004 6.997098e-39
0.1512161 0.13141511 2.1938524 7.366598e-39
0.17055406 0.13016461 2.1893103 4.9731368e-39
0.19071385 0.12922151 2.1974409 3.7796495e-39
0.20252842 0.12970254 2.1863334 2.765981e-40
0.33889127 0.13976872 2.184 8.3869283e-39
0.35112083 0.13149825 2.1920002 7.8359181e-39
0.3676641 0.13451819 2.1942668 1.114952e-38
0.38479561 0.12804157 2.1910002 1.4006544e-38
-0.083286837 0.14742728 2.184 1.1974939e-38
-0.070344612 0.14524877 2.191 1.1330301e-38
-0.052537233 0.1445455 2.1868 1.1055523e-38
-0.027317517 0.15120219 2.1886666 1.2715772e-38
-0.010747146 0.15004948 2.1889 1.2994535e-38
0.0095885424 0.14957203 2.1875005 1.3272927e-38
0.027116174 0.14652696 2.187 1.2995994e-38
0.089441046 0.14523914 2.184 1.2258441e-38
0.13122189 0.14417486 2.18925 1.0037044e-38
0.14951606 0.14568062 2.186625 1.0313243e-38
0.17120296 0.14507194 2.1852727 9.5760435e-39
0.1897396 0.14548503 2.1945002 8.1088686e-39
0.3524358 0.14234088 2.1900001 1.1422851e-38
0.36225969 0.14066467 2.1980002 1.2989105e-38
0.7538417 0.29014164 2.1917779 9.4954688e-39
0.76120609 0.28965771 2.184 9.680223e-39
0.75658441 0.30775562 2.1960001 9.4039991e-39
0.76241177 0.31092036 2.1892502 9.6805832e-39
0.75727695 0.32950217 2.1980002 9.5883903e-39
0.76542997 0.33182949 2.1869164 9.8656961e-39
0.75727695 0.34106365 2.1980002 9.4969164e-39
0.77001762 0.34911579 2.1893106 1.0049734e-38
0.78538531 0.35574013 2.184 1.0695824e-38
0.7712391 0.37003714 2.1973641 1.0234125e-38
0.78658265 0.37062705 2.1933341 1.1063883e-38
0.76883841 0.38345575 2.1980004 1.0049738e-38
0.78914678 0.39112863 2.1933341 1.170925e-38
0.78932023 0.40986395 2.1942673 1.2078031e-38
0.79412776 0.42942446 2.194819 1.2815237e-38
0.80223417 0.43845257 2.184 1.3920503e-38
0.79838443 0.44254777 2.1980004 1.3460603e-38
0.8069213 0.45026222 2.1886671 1.4289286e-38
0.82616717 0.45472699 2.184 1.5487111e-38
0.810983 0.46972698 2.1910002 1.4842464e-38
0.8290391 0.47100151 2.184 1.5395636e-38
0.84052694 0.47674537 2.184 1.5670784e-38
0.81125122 0.48966143 2.1876841 1.5487829e-38
0.83021748 0.48955864 2.1839993 1.5671505e-38
0.84052694 0.4978064 2.184 1.5855895e-38
0.81118959 0.51187581 2.1900001 1.5580386e-38
0.83008355 0.51173115 2.1839995 1.6592741e-38
0.84400815 0.5139938 2.184 1.6499821e-38
0.75727695 0.5376088 2.1980002 1.705299e-38
0.76883841 0.5376088 2.1980002 1.7145538e-38
0.79230326 0.53447849 2.1931005 1.7697993e-38
0.81107765 0.53096724 2.1936557 1.6499809e-38
0.83105314 0.53125322 2.191 1.6777115e-38
0.84977001 0.53061926 2.1839991 1.7237737e-38
0.86541724 0.5360992 2.184 1.7330297e-38
0.63239419 0.55657274 2.18925 7.3742267e-39
0.64988375 0.55075979 2.1973643 1.0876573e-38
0.66285819 0.55109727 2.1980002 1.5115779e-38
0.75727695 0.54338956 2.1980002 1.6592736e-38
0.77042538 0.54667675 2.1980002 1.6777484e-38
0.78891438 0.5492605 2.1895998 1.696152e-38
0.81064188 0.54946071 2.1856153 1.7237738e-38
0.83091372 0.5492596 2.1877692 1.7421775e-38
0.84977001 0.54923761 2.1839991 1.788203e-38
0.86698377 0.54810917 2.184 1.8158964e-38
0.63374585 0.5609895 2.184 1.1892536e-38
0.64977628 0.56667751 2.1871111 1.5484201e-38
0.66382158 0.56876063 2.1980002 1.474519e-38
0.79015112 0.56751895 2.1956673 1.6685643e-38
0.80999929 0.56845897 2.1867995 1.6408701e-38
0.82903922 0.56864804 2.1839993 1.6500539e-38
0.84435624 0.5609895 2.184 1.6686371e-38
0.65463287 0.58883882 2.184 1.4467887e-38
0.66241992 0.58664429 2.1920002 1.4098025e-38
0.73800778 0.59734309 2.1980002 1.3637763e-38
0.74927473 0.59720242 2.1936924 1.4100178e-38
0.77002728 0.59460622 2.1920002 1.4744814e-38
0.79108316 0.59029591 2.1928155 1.4929936e-38
0.81032002 0.58822495 2.191 1.4562603e-38
0.83101356 0.59068125 2.1902766 1.5301259e-38
0.8458454 0.59247476 2.1839998 1.5578571e-38
0.65234518 0.61131728 2.184 1.3731039e-38
0.66382164 0.6089046 2.1980002 1.3731027e-38
0.71873868 0.61853915 2.1980002 1.2993801e-38
0.73077303 0.61215049 2.1905885 1.4652619e-38
0.74429178 0.60503852 2.191 1.4655145e-38
0.81372201 0.61172748 2.184 1.3729226e-38
0.83060157 0.60993552 2.1947701 1.3270054e-38
0.84634751 0.61077565 2.1846998 1.4010148e-38
0.65216398 0.62972021 2.1933334 1.4284582e-38
0.67738366 0.63512665 2.191 1.2069332e-38
0.68933171 0.63154393 2.1912804 1.1516154e-38
0.71236801 0.6279968 2.193059 1.4098346e-38
0.72316313 0.62328899 2.191 1.4374587e-38
0.81372201 0.62672544 2.184 8.2896894e-39
0.8302123 0.62873405 2.1921673 9.5793366e-39
0.84687817 0.62814844 2.1886671 1.2348098e-38
0.65498483 0.64153326 2.191 1.585587e-38
0.66991389 0.64301068 2.1927502 1.1056989e-38
0.93625897 0.71798998 2.184 8.3876765e-39
0.94158864 0.71721983 2.1875 9.4018299e-39
0.93508083 0.72993261 2.1955295 9.0323047e-39
0.94800776 0.73184651 2.1846085 9.6802188e-39
0.9630639 0.73713642 2.184 1.0880571e-38
0.61842871 0.74670959 2.184 4.4228609e-39
0.93712223 0.7431463 2.1980004 8.480947e-39
0.95046973 0.74835247 2.1900003 9.5898211e-39
0.96280825 0.7500664 2.1863334 1.069725e-38
0.62328899 0.76734722 2.191 3.5952694e-39
0.9579736 0.76590204 2.191 1.041958e-38
0.96333665 0.77061373 2.1890001 1.0788006e-38
0.6250844 0.7897855 2.1920002 3.0431831e-39
0.96779674 0.7903598 2.1894448 1.1339739e-38
0.62616706 0.8086409 2.191 2.9517175e-39
0.90562469 0.80223417 2.184 4.332138e-39
0.95767593 0.81508434 2.1980004 7.4664447e-39
0.97085661 0.81117654 2.1957605 9.9557043e-39
0.98664093 0.81290382 2.1886668 1.1891089e-38
0.62927473 0.8308298 2.1938002 6.821769e-39
0.89413685 0.82520986 2.184 9.9535337e-39
0.95767593 0.83049965 2.1980002 7.6515492e-39
0.97026604 0.83132869 2.1952908 8.480947e-39
0.98534244 0.82688999 2.1909997 9.8617164e-39
0.51833969 0.85747641 2.1980002 6.5458925e-39
0.53075755 0.85576355 2.1980002 6.6373679e-39
0.54724336 0.85554945 2.1980002 7.1883809e-39
0.56843948 0.85747641 2.1980002 7.4664111e-39
0.58965015 0.85521811 2.1952007 7.7426378e-39
0.60807878 0.85582477 2.1980002 7.9270263e-39
0.62807685 0.85016155 2.1902227 8.1114148e-39
0.95767593 0.84398806 2.1980002 7.928841e-39
0.96755499 0.84756905 2.1915386 8.2961886e-39
0.9874441 0.85249054 2.1867995 8.7575311e-39
0.4919135 0.86545926 2.1980002 5.9912866e-39
0.51063204 0.86518401 2.1980002 6.7288446e-39
0.52990115 0.86518401 2.1980002 6.9121555e-39
0.54917037 0.86518413 2.1980002 6.9125156e-39
0.56843948 0.86518407 2.1980002 7.5582452e-39
0.58745432 0.86360246 2.194 8.1110616e-39
0.6089046 0.86518401 2.1980002 8.6638725e-39
0.62564725 0.86525428 2.1940002 8.8479036e-39
0.97357291 0.86566579 2.1980002 8.3883674e-39
0.9867084 0.86494482 2.1933336 8.2039873e-39
0.30833071 -0.8687557 2.2120001 1.9267816e-38
0.31280574 -0.85219812 2.2120001 1.9452207e-38
0.31531179 -0.82880831 2.2120001 1.9727351e-38
0.32578337 -0.82027596 2.2120001 1.9912465e-38
0.31738025 -0.81122643 2.2120001 1.9820988e-38
0.32578337 -0.8086409 2.2120001 1.9820988e-38
0.32927391 -0.789249 2.2120001 2.0096849e-38
0.33547926 -0.77373546 2.2120001 2.0280527e-38
0.34711441 -0.76210034 2.2120001 2.0465282e-38
0.35254416 -0.74813825 2.2120001 2.064967e-38
0.35745677 -0.73753732 2.2120004 2.064967e-38
0.36408231 -0.72961903 2.2120001 2.0833705e-38
0.36754054 -0.70935458 2.2120001 2.0926619e-38
0.3749682 -0.68770611 2.2120001 2.1018455e-38
0.38201976 -0.68647206 2.2120001 2.1018455e-38
0.37567335 -0.66972458 2.2120001 2.1110292e-38
0.38368192 -0.66680318 2.2120001 2.1294682e-38
0.40141162 -0.66126263 2.2120001 2.1202847e-38
0.37426305 -0.64898115 2.2120001 2.1202848e-38
0.38832214 -0.65253627 2.2120001 2.1386875e-38
0.4046436 -0.64801157 2.2120001 2.1295404e-38
0.37684864 -0.63669962 2.2120004 2.1295041e-38
0.38768813 -0.62784904 2.2120001 2.1479435e-38
0.40722919 -0.63023573 2.2120006 2.1387602e-38
0.39559406 -0.61666137 2.2120001 2.1479085e-38
0.4133451 -0.6123355 2.2120001 2.1387605e-38
0.42080352 -0.60696542 2.2120004 2.1388317e-38
0.41498598 -0.591452 2.2120001 2.1572708e-38
0.42438355 -0.5902586 2.2120001 2.1664185e-38
0.41563234 -0.57852405 2.2120004 2.1480157e-38
0.42532825 -0.56990534 2.2120004 2.1756382e-38
0.41692513 -0.54297227 2.2120001 2.1941135e-38
0.42823705 -0.54846656 2.2120008 2.1940775e-38
0.44019538 -0.54103309 2.2120001 2.2216999e-38
0.43146902 -0.53085232 2.2120001 2.2032613e-38
0.44019538 -0.52939796 2.2120001 2.2124091e-38
0.43631703 -0.51000607 2.2120001 2.2125165e-38
0.44631913 -0.50837314 2.2120004 2.2217362e-38
0.436317 -0.49255344 2.2120001 2.2585424e-38
0.44955695 -0.49034685 2.2120008 2.2401035e-38
0.46540481 -0.48285747 2.2120001 2.2217006e-38
0.45167536 -0.47184291 2.2120006 2.2401394e-38
0.46734399 -0.47703993 2.2120001 2.2493947e-38
0.4563553 -0.4531233 2.2120001 2.249395e-38
0.46915391 -0.44640076 2.2120001 2.2493948e-38
0.48285747 -0.44213456 2.2120001 2.2401037e-38
0.4753778 -0.42911434 2.2120001 2.2678341e-38
0.48285747 -0.42985305 2.2120004 2.2585428e-38
0.47359243 -0.40830651 2.2120004 2.2678341e-38
0.48613921 -0.40827337 2.2120001 2.2585785e-38
-0.029572597 -0.38541332 2.2120001 1.3728852e-38
-0.010988725 -0.38331255 2.2120004 1.6129544e-38
0.47820345 -0.39287922 2.2120001 2.2586864e-38
0.48673588 -0.3897765 2.2120001 2.2586145e-38
-0.02753645 -0.37426305 2.2120001 1.4467134e-38
-0.013574307 -0.36978799 2.2120001 1.612846e-38
0.49245143 -0.37160933 2.2120004 2.2678342e-38
0.50761944 -0.36710301 2.2120001 2.26787e-38
-0.031673383 -0.34452885 2.2120004 1.54813e-38
-0.014349982 -0.35060498 2.2120001 1.6126657e-38
0.49726287 -0.35265499 2.2120001 2.2770897e-38
0.50845474 -0.34982929 2.2120006 2.2770895e-38
-0.028118208 -0.33499447 2.2120001 1.4744097e-38
-0.015513493 -0.33644888 2.2120001 1.3915785e-38
0.49837098 -0.33935767 2.2120001 2.3046403e-38
0.50968289 -0.33127773 2.2120008 2.2955284e-38
0.52164119 -0.32578337 2.2120001 2.2679056e-38
0.51086795 -0.31048533 2.2120008 2.304748e-38
0.52336496 -0.30746883 2.2120001 2.3231151e-38
0.51711649 -0.2895852 2.2120001 2.304748e-38
0.52336496 -0.28893879 2.2120001 2.3140033e-38
0.51776284 -0.2773037 2.2120001 2.3324062e-38
0.52524263 -0.2689929 2.2120001 2.3139315e-38
0.53041857 -0.25117567 2.2120004 2.3139315e-38
0.54180878 -0.24705239 2.2120001 2.3138956e-38
0.53650832 -0.22947043 2.2120001 2.3047121e-38
0.54318774 -0.23291786 2.2120001 2.2955285e-38
0.53570032 -0.21282575 2.2120001 2.3415898e-38
0.54526407 -0.20819815 2.2120001 2.3139315e-38
0.54989797 -0.18920916 2.2120006 2.3139674e-38
0.55072898 -0.16870926 2.2120006 2.3140033e-38
0.56042492 -0.16095249 2.2120001 2.3231509e-38
0.5536378 -0.15028697 2.2120001 2.3323343e-38
0.56658471 -0.14680782 2.2120001 2.3231151e-38
0.55654657 -0.13768226 2.2120001 2.3324062e-38
0.57012087 -0.12964848 2.2120008 2.3231509e-38
0.58369517 -0.12410794 2.2120001 2.3140391e-38
0.57399917 -0.11053365 2.2120006 2.3231509e-38
0.58563441 -0.11053363 2.2120001 2.3139674e-38
0.57545364 -0.096474543 2.2120001 2.3046762e-38
0.58757353 -0.091141768 2.2120001 2.3139315e-38
0.61860055 -0.085324213 2.2120001 2.2587226e-38
0.59571815 -0.071749903 2.2120001 2.2954927e-38
0.61342937 -0.067871533 2.2120001 2.2770538e-38
0.6224789 -0.063993156 2.2120004 2.2678344e-38
0.59920865 -0.048479669 2.2120001 2.2769462e-38
0.60973573 -0.04792561 2.2120001 2.2770178e-38
0.62765008 -0.04589409 2.2120001 2.2678341e-38
0.59920865 -0.036844548 2.2120001 2.2677626e-38
0.61024714 -0.029087804 2.2120001 2.2585071e-38
0.63023555 -0.029087799 2.2120006 2.2309205e-38
0.64297891 -0.027425643 2.2120001 2.2125533e-38
0.61278296 -0.0096959341 2.2120001 2.212553e-38
0.6328212 -0.01034233 2.2120004 2.2309563e-38
0.6473822 -0.010104183 2.2120004 2.2308847e-38
0.61278296 0.0019391867 2.2120001 2.1848945e-38
0.63653797 0.0082415426 2.2120001 2.1938984e-38
0.64477956 0.0087263416 2.2120001 2.1939343e-38
0.64885187 0.029087801 2.2120001 2.0923379e-38
0.13574307 0.048479665 2.2120001 1.3544822e-38
0.14543901 0.054943621 2.2120004 1.9723381e-38
0.6505971 0.047510069 2.2120001 1.9813413e-38
0.11344241 0.073204294 2.2120001 1.3807793e-39
0.15319574 0.061407577 2.2120004 2.0644253e-38
0.16483086 0.063993156 2.2120004 1.9078726e-38
0.19197948 0.067871533 2.2120001 2.009072e-38
0.2773037 0.075628281 2.2120001 2.3316136e-38
0.28893882 0.075628281 2.2120001 2.350736e-38
0.30999285 0.073412061 2.2120001 2.3043134e-38
0.33073905 0.071749911 2.2120001 2.3225718e-38
0.35034642 0.072396293 2.2120001 2.3319728e-38
0.37210837 0.070888035 2.2120001 2.3320804e-38
0.3897765 0.069810726 2.2120001 2.3319725e-38
0.4060657 0.078730978 2.2120001 2.1753841e-38
0.65609151 0.061407577 2.2120004 1.9813416e-38
0.6647101 0.066147819 2.2120001 1.9905613e-38
0.11829039 0.083385028 2.2120001 6.4536941e-40
0.13018407 0.09398593 2.2120001 2.5807728e-39
0.145439 0.096571505 2.2120001 9.2201235e-41
0.16741645 0.098898523 2.2120004 5.5174445e-40
0.41304675 0.083385028 2.2120001 1.2157483e-38
0.67677617 0.083385028 2.2120001 2.1752055e-38
0.11505841 0.11441201 2.2120001 1.382577e-38
0.13266316 0.10962108 2.2120001 5.0682457e-39
0.14989914 0.1111154 2.2120006 9.1838299e-41
0.37232384 0.11247282 2.2120001 2.4881778e-39
-0.032966174 0.1318647 2.2120001 1.2441014e-38
-0.0038783734 0.13768226 2.2120001 1.2533939e-38
0.010988725 0.13703586 2.2120001 1.1705259e-38
0.024045916 0.13225253 2.2120001 1.1797812e-38
0.11441201 0.12438497 2.2120001 1.3546268e-38
0.12957293 0.12904406 2.2120006 3.6824036e-39
0.14802459 0.12410794 2.2120001 1.1967327e-39
0.19973622 0.13768226 2.2120001 3.7835913e-39
0.20361459 0.12604713 2.2120001 0
0.37038466 0.12937145 2.2120001 9.2141428e-39
0.38460535 0.12604713 2.2120004 1.2622158e-38
-0.027148614 0.14156063 2.2120001 1.3271144e-38
-0.0096959341 0.14156063 2.2120001 1.2625415e-38
0.0096959341 0.14156063 2.2120001 1.2165511e-38
0.02327024 0.14156063 2.2120001 1.2071155e-38
0.20361459 0.14349982 2.2120001 1.0130659e-39
0.73883009 0.29475635 2.2120001 9.2170813e-39
0.74813825 0.29165366 2.2120001 9.2178002e-39
0.73883009 0.3044523 2.2120004 9.2177974e-39
0.75078845 0.30962348 2.2120008 9.1274052e-39
0.75531316 0.33063132 2.2120001 9.2199652e-39
0.75434369 0.35099277 2.2120001 9.4039963e-39
0.76287597 0.35409549 2.2120001 9.6816622e-39
0.75822198 0.37232384 2.2120001 9.5883946e-39
0.76533234 0.36909187 2.2120001 9.9578903e-39
0.75822198 0.38589817 2.2120004 9.8656933e-39
0.76940084 0.39114541 2.2120001 1.0234123e-38
0.78343147 0.38977647 2.2120001 1.0972046e-38
0.77347684 0.40813419 2.2120001 1.0603271e-38
0.78149223 0.40916833 2.2120001 1.1156798e-38
0.77606249 0.42390624 2.2120001 1.1339747e-38
0.78564763 0.43022245 2.2120001 1.2077312e-38
0.77761382 0.45958725 2.2120001 1.2907426e-38
0.79017973 0.45027912 2.2120006 1.2998194e-38
0.80254626 0.45460084 2.2120001 1.382759e-38
0.77761382 0.4634656 2.2120001 1.2631918e-38
0.79030675 0.47104612 2.2120006 1.3459888e-38
0.80567509 0.47190672 2.2120001 1.4381843e-38
0.79368144 0.49061424 2.2120001 1.4105256e-38
0.80670166 0.49061424 2.2120006 1.4842821e-38
0.79700571 0.50224936 2.2120001 1.4197817e-38
0.80476254 0.51000613 2.2120001 1.5119767e-38
0.67289782 0.53715467 2.2120004 7.0057959e-39
0.75261998 0.53500009 2.2120001 1.7697992e-38
0.76985711 0.53327638 2.2120001 1.723773e-38
0.78827941 0.53166044 2.2120001 1.6039185e-38
0.80346966 0.52422684 2.2120001 1.3824308e-38
0.65350592 0.54491144 2.2120001 5.8115869e-39
0.67186344 0.5467214 2.2120001 1.2535371e-38
0.68790531 0.54946434 2.2120006 1.5207981e-38
0.70923209 0.55123931 2.2120004 1.5577135e-38
0.73198599 0.54742092 2.2120001 1.613067e-38
0.75046521 0.54878992 2.2120006 1.6683848e-38
0.76662517 0.55525386 2.2120001 1.6685293e-38
0.63411403 0.56042492 2.2120001 5.8994693e-39
0.67522478 0.56934524 2.2120001 1.4468606e-38
0.6884113 0.57012081 2.2120008 1.4837755e-38
0.70855379 0.56930768 2.2120006 1.5300533e-38
0.73301256 0.57157528 2.2120001 1.6038108e-38
0.74852604 0.56818169 2.2120001 1.6407257e-38
0.77056229 0.56730026 2.2120006 1.696115e-38
0.78450871 0.57507658 2.2120001 1.6315413e-38
0.67462146 0.59059006 2.2120001 1.4006187e-38
0.68625665 0.58584976 2.2120001 1.4467881e-38
0.71245718 0.58912486 2.2120001 1.4467884e-38
0.73107338 0.59145188 2.2120006 1.4468601e-38
0.74901086 0.59048241 2.2120001 1.4376055e-38
0.76942617 0.59231383 2.2120001 1.4560073e-38
0.78808546 0.58718574 2.2120001 1.3826107e-38
0.80088407 0.58757353 2.2120001 1.4101266e-38
0.67375964 0.61299843 2.2120001 1.3085654e-38
0.6825937 0.61666137 2.2120001 1.3270046e-38
0.71297431 0.61515313 2.2120001 1.0686402e-38
0.73042703 0.60912001 2.2120004 1.2531751e-38
0.67095864 0.63023567 2.2120006 1.234664e-38
0.68751621 0.62576061 2.2120001 1.16098e-38
0.70877278 0.62474126 2.2120001 1.1608697e-38
0.6690194 0.64332521 2.2120001 1.0872585e-38
0.93145603 0.73753732 2.2120004 1.1889631e-38
0.94438392 0.72331661 2.2120001 1.2811618e-38
0.6224789 0.75822198 2.2120001 4.7909161e-39
0.9311974 0.75124097 2.2120001 9.9531848e-39
0.94205683 0.75511926 2.2120001 8.1121645e-39
0.62506455 0.76856434 2.2120004 4.331031e-39
0.93080962 0.76597875 2.2120001 8.5713279e-39
0.95011723 0.77137482 2.2120006 8.4823931e-39
0.96377575 0.76985711 2.2120001 9.8678471e-39
0.62635732 0.79506654 2.2120001 4.6998303e-39
0.96571493 0.79183453 2.2120001 1.0050436e-38
0.62635732 0.8086409 2.2120001 1.935409e-39
0.91723531 0.80864084 2.2120001 4.8845761e-39
0.92111367 0.81251925 2.2120004 3.3176162e-39
0.95795822 0.81639761 2.2120001 6.9150632e-39
0.96730167 0.80617291 2.2120001 8.757894e-39
0.62926608 0.8309415 2.2120001 6.7281328e-39
0.91335696 0.82867908 2.2120001 4.7923805e-39
0.95934343 0.82858676 2.2120001 7.1905711e-39
0.47620887 0.85573542 2.2120001 7.8312377e-39
0.49061421 0.85518146 2.2120001 5.7146969e-39
0.50930095 0.85659158 2.2120001 6.5437359e-39
0.53045571 0.85377097 2.2120001 6.636656e-39
0.54878986 0.85130304 2.2120001 6.7292034e-39
0.57050866 0.85269928 2.2120006 7.0050742e-39
0.59074682 0.84989262 2.2120001 7.0050728e-39
0.61161953 0.85013956 2.2120006 7.4660496e-39
0.62494695 0.85059786 2.2120001 7.6504422e-39
0.90656972 0.85615093 2.2120001 6.8199529e-39
0.95925111 0.85259581 2.2120001 7.0987258e-39
0.96377575 0.85712051 2.2120001 7.650822e-39
0.47676292 0.8668164 2.2120001 9.2134253e-39
0.48759767 0.86595452 2.2120001 5.5310231e-39
0.51000607 0.86293805 2.2120001 6.6370106e-39
0.56042492 0.86293805 2.2120001 7.0961894e-39
0.62377179 0.86746281 2.2120001 8.6638753e-39
0.90753937 0.86875558 2.2120001 6.0831137e-39
0.95823532 0.86903262 2.2120001 8.4809218e-39
0.96800667 0.86963701 2.2120001 8.850063e-39
0.29857337 -0.88010848 2.2260001 1.9451853e-38
0.30247629 -0.88010848 2.2260001 1.926746e-38
0.29857337 -0.87230265 2.2260003 1.9360016e-38
0.30359143 -0.86672705 2.2260001 1.9359657e-38
0.30693683 -0.8483277 2.2260001 1.9544046e-38
0.30957255 -0.83008015 2.2260001 1.9819911e-38
0.31208351 -0.8107565 2.2260001 1.982063e-38
0.3232919 -0.80335104 2.2260003 1.9912468e-38
0.32676116 -0.78990769 2.2260001 2.0188691e-38
0.33369967 -0.77472967 2.2260001 2.0280886e-38
0.34443268 -0.76789951 2.2260001 2.0372727e-38
0.34931138 -0.75298482 2.2260001 2.0557473e-38
0.35581622 -0.73179752 2.2260001 2.0833703e-38
0.36102009 -0.72789454 2.2260001 2.0833705e-38
0.35600206 -0.70782244 2.2260001 2.0925897e-38
0.36375213 -0.70603818 2.2260001 2.0926617e-38
0.35516572 -0.69081676 2.2260001 2.1018092e-38
0.36687449 -0.6888653 2.2260001 2.1018455e-38
0.36730811 -0.66978443 2.2260003 2.1202849e-38
0.38053471 -0.66154492 2.2260001 2.1293963e-38
0.36882594 -0.65095133 2.2260005 2.1203207e-38
0.38053471 -0.65764201 2.2260001 2.1202494e-38
0.37237406 -0.63351488 2.2260001 2.1295404e-38
0.38394973 -0.62593079 2.2260001 2.1387961e-38
0.40395221 -0.62251574 2.2260001 2.147836e-38
0.37663177 -0.61861283 2.2260001 2.1480513e-38
0.39029199 -0.61247963 2.2260001 2.1663469e-38
0.40590361 -0.60993963 2.2260003 2.1571992e-38
0.39468277 -0.59275597 2.2260001 2.1571991e-38
0.40600631 -0.59170312 2.2260003 2.1664545e-38
0.39614639 -0.57958364 2.2260001 2.1756389e-38
0.41614878 -0.57177782 2.2260001 2.1848219e-38
0.42346683 -0.56787485 2.2260001 2.2123727e-38
0.41800269 -0.54836029 2.2260001 2.1756744e-38
0.42346683 -0.5405544 2.2260001 2.2125526e-38
0.41956389 -0.53665149 2.2260001 2.2218078e-38
0.4277246 -0.52636206 2.2260001 2.2217003e-38
0.43127266 -0.50933117 2.2260001 2.2217003e-38
0.4351756 -0.49079219 2.2260001 2.230884e-38
0.43907851 -0.47420478 2.2260003 2.2493232e-38
0.44428241 -0.4696514 2.2260001 2.249359e-38
0.45138767 -0.45198813 2.2260001 2.2586141e-38
0.46444747 -0.44298142 2.2260001 2.2586501e-38
0.4585931 -0.43127266 2.2260001 2.2677982e-38
0.46688679 -0.43078476 2.2260001 2.2586501e-38
0.46639889 -0.40980652 2.2260001 2.267834e-38
0.47566837 -0.39175558 2.2260001 2.2771254e-38
0.4820106 -0.38248616 2.2260001 2.2218442e-38
-0.027470551 -0.36552346 2.2260001 1.4190549e-38
-0.0097572999 -0.37272885 2.2260001 1.5852591e-38
0.48651406 -0.36762503 2.2260001 2.2770537e-38
-0.027970927 -0.34996185 2.2260003 1.3637731e-38
-0.012099052 -0.35399485 2.2260001 1.5758233e-38
0.49410969 -0.35009193 2.2260001 2.2862731e-38
-0.032394238 -0.33448026 2.2260001 1.2439583e-38
-0.01756314 -0.33760259 2.2260001 1.3913261e-38
0.49762231 -0.33174819 2.2260001 2.2862374e-38
0.50217569 -0.3284958 2.2260001 2.2954927e-38
0.50264037 -0.30860946 2.2260001 2.3139315e-38
0.51011169 -0.2909627 2.2260005 2.3139314e-38
0.51355928 -0.27352962 2.2260001 2.3231868e-38
0.52103984 -0.26930147 2.2260001 2.3047121e-38
0.51713687 -0.25759271 2.2260001 2.2863809e-38
0.52614373 -0.24693474 2.2260001 2.3047478e-38
0.53214824 -0.22922149 2.2260001 2.3231151e-38
0.53274864 -0.20958684 2.2260001 2.3323703e-38
0.54250586 -0.20100038 2.2260001 2.3322986e-38
0.53665149 -0.19514599 2.2260001 2.3231868e-38
0.54250592 -0.18929161 2.2260001 2.3324061e-38
0.54250592 -0.17172849 2.2260001 2.3139315e-38
0.54982388 -0.14879882 2.2260001 2.3231868e-38
0.55616611 -0.13660219 2.2260001 2.3324062e-38
0.56084961 -0.12918666 2.2260001 2.3323345e-38
0.56425077 -0.11095446 2.2260001 2.3231151e-38
0.56969625 -0.093279801 2.2260001 2.3139315e-38
0.58627439 -0.083355226 2.2260001 2.2955285e-38
0.59339398 -0.067400418 2.2260001 2.3047119e-38
0.59547412 -0.049344067 2.2260001 2.2861655e-38
0.59831762 -0.032394238 2.2260001 2.2677266e-38
0.60560304 -0.026669953 2.2260001 2.2401042e-38
0.62251574 -0.029271901 2.2260001 2.2492876e-38
0.610807 -0.0097572999 2.2260001 2.212553e-38
0.62544292 -0.0087815719 2.2260001 2.2217007e-38
0.61506474 0.011176544 2.2260001 2.1846781e-38
0.62957823 0.0099431528 2.2260005 2.193934e-38
0.6352002 0.028296165 2.2260001 2.0738257e-38
0.64376491 0.030139215 2.2260001 2.0737897e-38
0.1297721 0.046835039 2.2260001 6.4424893e-39
0.14766048 0.052689418 2.2260003 1.9999962e-38
0.39263374 0.051908832 2.2260001 2.2305939e-38
0.4000493 0.054640878 2.2260001 2.3413719e-38
0.63617593 0.044883579 2.2260001 1.9445352e-38
0.64625847 0.051063202 2.2260001 1.9629019e-38
0.10602932 0.074805968 2.2260003 9.219563e-41
0.15806825 0.060495261 2.2260001 1.9446438e-38
0.16977702 0.06205643 2.2260001 1.898545e-38
0.18148577 0.064398177 2.2260001 1.981306e-38
0.29244024 0.071088903 2.2260001 2.341409e-38
0.30979428 0.068788961 2.2260001 2.3508079e-38
0.33028463 0.065861769 2.2260001 2.3412997e-38
0.34931135 0.066349633 2.2260001 2.3134972e-38
0.36736235 0.065861769 2.2260001 2.2952387e-38
0.3883405 0.062446721 2.2260001 2.3135335e-38
0.40785509 0.071336709 2.2260001 2.2212684e-38
0.65105581 0.066105701 2.2260001 1.9720497e-38
0.66544789 0.073876701 2.2260001 2.0182917e-38
0.099524461 0.085864246 2.2260001 1.1798165e-38
0.11078289 0.09051773 2.2260008 8.3049775e-40
0.12294199 0.091718629 2.2260003 1.8439126e-40
0.41956389 0.081961319 2.2260001 1.3727001e-38
0.6740343 0.081571035 2.2260001 2.0922289e-38
0.014961193 0.11773809 2.2260003 1.2074391e-38
0.10979531 0.11000072 2.2260003 1.3368008e-38
0.37370458 0.11806333 2.2260001 6.4471767e-39
0.38248616 0.1170876 2.2260001 8.2921556e-39
-0.025368981 0.13334976 2.2260001 1.2255189e-38
-0.01192559 0.13551804 2.2260001 1.197968e-38
0.010798079 0.12944683 2.2260001 1.1705612e-38
0.10342738 0.12294198 2.2260001 2.3509764e-38
0.37272885 0.12489344 2.2260001 8.4765679e-39
0.38313669 0.12554394 2.2260003 1.0317612e-38
0.73439956 0.29597145 2.2260001 8.8482946e-39
0.74662858 0.2884258 2.2260001 9.0326928e-39
0.73374897 0.3102822 2.2260005 8.849375e-39
0.74643344 0.31711224 2.2260001 8.8511812e-39
0.73667622 0.32882106 2.2260001 9.0334117e-39
0.74832755 0.33048552 2.2260001 9.035211e-39
0.73786879 0.34844404 2.2260001 9.2181589e-39
0.74789709 0.34882349 2.2260001 9.127408e-39
0.75401419 0.36792526 2.2260001 9.4040019e-39
0.76302087 0.36492303 2.2260001 9.312172e-39
0.75846756 0.38703954 2.2260001 9.7731403e-39
0.76497233 0.39614639 2.2260001 1.0141919e-38
0.75911796 0.40200076 2.2260001 9.9578903e-39
0.76744419 0.41045702 2.2260001 1.0232691e-38
0.77064079 0.43108681 2.2260005 1.0970963e-38
0.78253543 0.43712705 2.2260001 1.1615985e-38
0.77424175 0.45029932 2.2260001 1.170853e-38
0.78427011 0.45165458 2.2260001 1.2261705e-38
0.77472967 0.47030178 2.2260001 1.2078753e-38
0.78409666 0.4734242 2.2260001 1.2998914e-38
0.77798212 0.48851547 2.2260001 1.2815592e-38
0.7889033 0.49104902 2.2260003 1.3368051e-38
0.80205005 0.49176791 2.2260001 1.3920505e-38
0.79001594 0.50965625 2.2260008 1.3644632e-38
0.80205005 0.51323402 2.2260003 1.4473318e-38
0.67520517 0.53665149 2.2260001 6.2693407e-39
0.68886536 0.53665155 2.2260001 1.0507393e-38
0.70837998 0.53665155 2.2260001 1.5299094e-38
0.72945577 0.53665155 2.2260001 1.7605063e-38
0.74984854 0.53421223 2.2260001 1.6591636e-38
0.79307336 0.52494282 2.2260001 1.1891088e-38
0.80205005 0.5229913 2.2260001 1.3458407e-38
0.6693508 0.5405544 2.2260001 6.7288545e-39
0.69198769 0.54133505 2.2260001 1.2810886e-38
0.71005273 0.54473621 2.2260001 1.6037389e-38
0.72984612 0.54445744 2.2260001 1.6867149e-38
0.74350625 0.5405544 2.2260001 1.7513242e-38
0.73326111 0.56885064 2.2260008 1.6038468e-38
0.75431436 0.5732789 2.2260001 1.6775317e-38
0.76952577 0.57893318 2.2260001 1.6958978e-38
0.69228035 0.59665889 2.2260001 1.4283124e-38
0.70946413 0.5936774 2.2260003 1.4192009e-38
0.725618 0.5883652 2.2260001 1.483811e-38
0.75911796 0.58738947 2.2260003 1.4745201e-38
0.7708267 0.58738953 2.2260001 1.4837027e-38
0.78448689 0.58738947 2.2260001 1.4287451e-38
0.68979466 0.60950613 2.2260005 1.3545921e-38
0.70837998 0.61080694 2.2260005 1.317749e-38
0.7225281 0.61275846 2.2260001 1.2068974e-38
0.69471973 0.62251574 2.2260001 1.2901634e-38
0.70057416 0.62251574 2.2260001 1.1610907e-38
0.93670082 0.73765188 2.2260001 1.3086754e-38
0.9304561 0.77394909 2.2260001 9.8617024e-39
0.94450665 0.77131462 2.2260001 7.8344972e-39
0.59909821 0.79814714 2.2260001 5.3459424e-39
0.6102494 0.79452306 2.2260001 4.2413829e-39
0.62753379 0.792014 2.2260001 4.1477398e-39
0.93214738 0.79071289 2.2260005 7.2802192e-39
0.94998932 0.79182798 2.2260005 7.5604172e-39
0.96519214 0.79229277 2.2260001 9.1288429e-39
0.59763461 0.81131947 2.2260001 1.474414e-39
0.610807 0.80985564 2.2260005 4.5172397e-39
0.62446719 0.80985594 2.2260001 3.5956478e-39
0.93245345 0.80985588 2.2260001 4.97679e-39
0.95036101 0.80985576 2.2260005 6.1753388e-39
0.96402121 0.80985594 2.2260001 7.8363034e-39
0.59909821 0.82156467 2.2260001 0
0.60950601 0.82156467 2.2260003 0
0.62771964 0.82893687 2.2260001 2.5811273e-39
0.93056762 0.82909179 2.2260001 3.6878462e-39
0.95252937 0.82806957 2.2260003 6.0845865e-39
0.96206975 0.83327341 2.2260003 7.1898508e-39
0.47615623 0.85278803 2.2260001 8.2932725e-39
0.48981643 0.85278809 2.2260001 5.4381142e-39
0.51167285 0.85317832 2.2260001 6.0838396e-39
0.52764487 0.85248798 2.2260001 6.5441017e-39
0.54836029 0.84888518 2.2260001 6.5448093e-39
0.57015157 0.8462832 2.2260001 6.5448135e-39
0.59129238 0.84742147 2.2260001 6.821399e-39
0.61178267 0.84595788 2.2260001 6.9132401e-39
0.62563807 0.8426404 2.2260001 6.9135974e-39
0.91328323 0.8483972 2.2260001 7.0036449e-39
0.92759395 0.84498215 2.2260001 3.8711501e-39
0.95262057 0.84929609 2.2260003 5.9005441e-39
0.96206969 0.84888506 2.2260001 6.7306719e-39
0.47810769 0.87620556 2.2260001 1.0411604e-38
0.91848719 0.86709875 2.2260001 5.5310329e-39
0.93084639 0.86839974 2.2260005 6.452985e-39
0.95068622 0.86872494 2.2260008 7.466774e-39
0.96206975 0.86644822 2.2260001 7.5589753e-39
0.47810769 0.88010848 2.2260001 1.059597e-38
0.91913766 0.88010848 2.2260001 7.0983446e-39
0.93084639 0.88010848 2.2260001 7.7440728e-39
0.95036107 0.88010848 2.2260001 8.7575086e-39
0.21249932 -0.88647586 2.2560003 1.6316848e-38
0.23098156 -0.88614041 2.2560003 1.4012299e-38
0.26900956 -0.88554591 2.2522504 1.8255114e-38
0.28879768 -0.88407451 2.2410004 1.8900478e-38
0.2152462 -0.87120318 2.2560005 1.6317208e-38
0.23103832 -0.86913556 2.2560005 1.4103415e-38
0.25908655 -0.86823666 2.256 1.4934984e-38
0.27172613 -0.86914366 2.2515559 1.8530981e-38
0.28829843 -0.86939257 2.2426081 1.8991596e-38
0.30058533 -0.86639303 2.2410002 1.9359656e-38
0.23139791 -0.85637015 2.256 1.3734994e-38
0.27688637 -0.84845895 2.2560003 1.9083789e-38
0.28967881 -0.85018998 2.2490366 1.9360017e-38
0.30170795 -0.84899217 2.2410002 1.9636241e-38
0.27807304 -0.83184588 2.2560003 1.9176345e-38
0.28994173 -0.8296209 2.2500005 1.9544407e-38
0.30308577 -0.83174437 2.2410004 1.9728797e-38
0.29435793 -0.81095982 2.2501671 1.9820995e-38
0.30579996 -0.80845147 2.2432506 1.9912827e-38
0.32023144 -0.80352551 2.2410002 2.0004659e-38
0.29705957 -0.79387289 2.2560003 2.0006104e-38
0.31052464 -0.79034317 2.2497101 2.0097218e-38
0.32270208 -0.79020607 2.2422504 2.0188692e-38
0.31554261 -0.7711466 2.2560005 2.0189771e-38
0.33004558 -0.76996964 2.2482855 2.0281248e-38
0.34380674 -0.76619792 2.2410002 2.0372727e-38
0.31728923 -0.75013614 2.2560003 2.0557474e-38
0.33172545 -0.74897546 2.2511616 2.0649313e-38
0.34745532 -0.74795508 2.2410007 2.0649671e-38
0.31683716 -0.7345401 2.2560003 2.0465282e-38
0.33099642 -0.73016167 2.2548892 2.0650032e-38
0.34840336 -0.72863901 2.2430463 2.0741866e-38
0.33367404 -0.71259314 2.2536321 2.0742226e-38
0.34771881 -0.70884395 2.2445722 2.092626e-38
0.36345285 -0.70136577 2.2410002 2.1018453e-38
0.33643895 -0.68935925 2.2560003 2.1018451e-38
0.34868938 -0.68887085 2.2472508 2.111029e-38
0.36345285 -0.69743657 2.2410002 2.1018453e-38
0.33650175 -0.67328608 2.2560003 2.1019171e-38
0.35070828 -0.66991258 2.2475626 2.129504e-38
0.36345285 -0.67386121 2.2410002 2.1295045e-38
0.35418981 -0.65122163 2.2491822 2.1387237e-38
0.36345285 -0.6463567 2.2410002 2.1295405e-38
0.35700446 -0.63139087 2.2517147 2.1571268e-38
0.36825576 -0.62880248 2.2425797 2.1479436e-38
0.35621655 -0.61200684 2.2560003 2.1755302e-38
0.37020832 -0.61045474 2.2462943 2.1663469e-38
0.38692886 -0.60931563 2.2420721 2.1387602e-38
0.37696108 -0.59451467 2.2560003 2.175566e-38
0.38794571 -0.59102929 2.2482007 2.175602e-38
