# .PCD v0.7 - Point Cloud Data file format
VERSION 0.7
FIELDS x y z rgb
SIZE 4 4 4 4
TYPE F F F F
COUNT 1 1 1 1
WIDTH 1042
HEIGHT 1
VIEWPOINT 0 0 0 1 0 0 0
POINTS 1042
DATA ascii
0.25324827 0.067117222 1.3168869 1.9633327e-38
0.27038413 0.070051804 1.3118162 1.9356028e-38
0.28759539 0.070957251 1.3041099 1.9263829e-38
0.30019346 0.078757979 1.302 1.8987618e-38
-0.72462606 0.086376466 1.3158236 1.1615171e-38
-0.71413416 0.089218661 1.3103334 1.1707374e-38
-0.69797838 0.084750429 1.302 1.1891748e-38
0.046226323 0.090146728 1.3079615 1.4288159e-38
0.25862369 0.081974469 1.317 1.9817367e-38
0.27228904 0.088678233 1.3161076 1.9355663e-38
0.29001769 0.090212502 1.3083291 1.9171278e-38
0.30545536 0.092742719 1.3021227 1.9079079e-38
0.039188754 0.11604437 1.302 1.4011935e-38
0.044568084 0.10972963 1.3117917 1.4288155e-38
0.27825138 0.10044759 1.317 1.9171283e-38
0.29262766 0.10740642 1.3154449 1.8895406e-38
0.30986753 0.11024979 1.3086455 1.8802851e-38
0.32649109 0.11382765 1.302469 1.8618823e-38
0.037666861 0.1255562 1.302 1.4103413e-38
0.041962743 0.12793973 1.3112501 1.4103769e-38
0.29903364 0.12122985 1.317 1.6590509e-38
0.31327131 0.12707098 1.3154699 1.8341874e-38
0.33040223 0.13036345 1.3106247 1.8433713e-38
0.34758738 0.13273504 1.3030643 1.8065649e-38
0.035677016 0.15415451 1.306643 1.3919023e-38
0.040333241 0.14981794 1.3145001 1.3827184e-38
0.33310938 0.14919847 1.3146417 1.8250043e-38
0.35000533 0.1499837 1.305297 1.8341519e-38
0.36224523 0.15097873 1.302 1.815749e-38
0.38196066 0.15533689 1.302 1.7328458e-38
0.033536006 0.16977225 1.3086668 1.3734987e-38
0.040409949 0.16163979 1.317 1.3919375e-38
0.33576998 0.16657297 1.3169999 1.815785e-38
0.34945166 0.16999458 1.3136885 1.7789789e-38
0.36889929 0.17081048 1.3046926 1.7512849e-38
0.38769308 0.1720019 1.3042886 1.7328101e-38
0.40139937 0.178442 1.302 1.7235191e-38
0.032646049 0.19049267 1.3105136 1.3550602e-38
0.35303766 0.18528982 1.317 1.75132e-38
0.36998555 0.19023119 1.3128752 1.7328458e-38
0.39025074 0.19043867 1.3069998 1.7235905e-38
0.40581331 0.19234823 1.3021258 1.7051515e-38
0.028769415 0.21150054 1.3124546 1.3274374e-38
0.37696716 0.20455134 1.3170002 1.6867849e-38
0.3930524 0.20823961 1.3123277 1.6682726e-38
0.40921378 0.21076503 1.305357 1.6129915e-38
0.42570475 0.21654513 1.3023334 1.5300146e-38
0.024999805 0.23069027 1.3092223 1.34584e-38
0.39634743 0.22217228 1.317 1.779014e-38
0.41176906 0.22955941 1.3138182 1.7419929e-38
0.43003103 0.22973801 1.3043568 1.6775645e-38
0.44651264 0.23453465 1.302 1.6960036e-38
-0.52619457 0.25796092 1.302 3.6860287e-39
0.018262722 0.24997097 1.302 1.290559e-38
0.023821959 0.24928208 1.3115237 1.3089986e-38
0.41765031 0.24800974 1.3152609 1.6406502e-38
0.42979351 0.24986523 1.3092219 1.6314668e-38
0.44698855 0.25201324 1.3036329 1.6129918e-38
-0.52657747 0.27013534 1.3102893 4.6079654e-39
-0.51197922 0.2724683 1.3079724 3.5930834e-39
-0.49632746 0.27732691 1.3045001 3.5934477e-39
0.019404139 0.27736506 1.302 1.272048e-38
0.022709645 0.26830918 1.310077 1.2905953e-38
0.4191089 0.26208737 1.317 1.6314308e-38
0.43461135 0.26807874 1.3161668 1.603808e-38
0.4491424 0.27004123 1.3067156 1.5853691e-38
0.46390569 0.27769119 1.302 1.55771e-38
-0.52388608 0.28174198 1.3153334 4.8841894e-39
-0.50729769 0.28894341 1.3140934 3.685272e-39
-0.4899016 0.29021272 1.3058234 3.6849119e-39
-0.47711357 0.29448637 1.302 3.5927121e-39
0.01737453 0.29151335 1.3084286 1.2444969e-38
0.43758199 0.28286964 1.317 1.5761856e-38
0.45168635 0.28969991 1.3119348 1.5301238e-38
0.46846578 0.29174674 1.3040497 1.5209042e-38
0.48053783 0.2956278 1.302 1.5117202e-38
-0.50399494 0.30661115 1.3166875 3.5930708e-39
-0.48998106 0.30979788 1.3118458 3.7767404e-39
-0.47318891 0.3111532 1.3044242 4.144088e-39
-0.22067451 0.30742246 1.302 3.4990857e-39
-0.21475339 0.3100431 1.3093752 3.4072446e-39
-0.1997406 0.3117339 1.317 2.8569449e-39
0.015695546 0.30884588 1.3096666 1.2167308e-38
0.45461529 0.30584785 1.3139355 1.5578542e-38
0.46963963 0.30998331 1.3091708 1.5301596e-38
0.48869929 0.31075948 1.3032172 1.4840622e-38
0.50817651 0.31552118 1.3020004 1.4840988e-38
-0.4850933 0.32623395 1.3166875 4.1447984e-39
-0.47082734 0.33094752 1.3100208 4.6965275e-39
-0.45669356 0.33355007 1.3023572 5.8921966e-39
-0.22231162 0.33336836 1.3103335 3.3161322e-39
-0.21769673 0.32693815 1.3115835 3.3168412e-39
0.013106647 0.33047304 1.3107499 1.1891436e-38
0.47415593 0.32761592 1.3155559 1.4932462e-38
0.48979455 0.32997397 1.308623 1.4840624e-38
0.51020336 0.33003837 1.3037477 1.4656235e-38
0.52399492 0.33249176 1.3022084 1.438001e-38
-0.48145568 0.34059814 1.317 3.7770935e-39
-0.46833122 0.347983 1.3128976 5.3415297e-39
-0.45072174 0.34954548 1.306636 7.0907272e-39
-0.43324351 0.3540673 1.30325 7.9211997e-39
-0.22247699 0.34992781 1.3090314 3.4998074e-39
-0.1989823 0.34390581 1.312 3.3161308e-39
0.010614577 0.35005876 1.3102351 1.1798876e-38
0.47914654 0.34059814 1.317 1.4840269e-38
0.49311164 0.3482222 1.3135002 1.4563678e-38
0.50922114 0.34988323 1.3079456 1.4287814e-38
0.530415 0.35076126 1.306178 1.4103066e-38
0.54528731 0.356015 1.3022631 1.3918672e-38
-0.6581049 0.37985352 1.317 1.0235122e-38
-0.46067342 0.36253497 1.317 7.0910943e-39
-0.44841123 0.36558729 1.3141625 7.9215668e-39
-0.43055731 0.37010419 1.311149 8.5669334e-39
-0.41085511 0.37448364 1.3042581 9.1190282e-39
-0.39835557 0.3766686 1.302 9.3952592e-39
-0.22346465 0.37008354 1.3096253 3.5923631e-39
-0.21821372 0.37985352 1.317 3.0417145e-39
0.0077821715 0.36989799 1.3100767 1.1614842e-38
0.49761969 0.36138043 1.3170002 1.4011227e-38
0.51149046 0.36830211 1.3135687 1.4103783e-38
0.53196013 0.36923614 1.3124164 1.3919393e-38
0.54921794 0.37099263 1.3053594 1.3734643e-38
0.56885654 0.37305823 1.3044041 1.3550248e-38
-0.68119043 0.39087251 1.3141429 5.533516e-39
-0.67101413 0.38921601 1.3158237 7.0993998e-39
-0.64857781 0.38946092 1.3164052 9.0358598e-39
-0.6300106 0.39012012 1.3087741 9.2191678e-39
-0.6156823 0.39230898 1.3045002 9.7727059e-39
-0.50490928 0.39068431 1.3093438 5.8994119e-39
-0.48995823 0.38878208 1.3099847 8.1103049e-39
-0.47083864 0.39065731 1.3088479 1.1613372e-38
-0.4496958 0.38812342 1.3087794 1.2995222e-38
-0.43032312 0.38793108 1.3102144 1.2995938e-38
-0.41006404 0.38571885 1.3038893 1.2257647e-38
-0.39569226 0.38579994 1.302 1.1426806e-38
-0.22487122 0.38629583 1.3075885 3.9618631e-39
-0.21120518 0.38822013 1.308579 5.2529621e-39
-0.19716211 0.38600621 1.3095 5.4373477e-39
-0.0011414201 0.39264846 1.302 1.1244264e-38
0.004413249 0.39016801 1.3122083 1.1246414e-38
0.51724732 0.38216266 1.317 1.4380014e-38
0.53561473 0.38360259 1.3153336 1.3826479e-38
0.55076891 0.38949817 1.311444 1.3365501e-38
0.56947839 0.39052969 1.3059324 1.308963e-38
0.58393157 0.39736947 1.3040001 1.2814121e-38
-0.64386523 0.40294492 1.3170002 4.887418e-39
-0.62968379 0.4032194 1.3070002 4.3328092e-39
-0.61555147 0.40373662 1.302 3.8714752e-39
-0.51021475 0.41661829 1.302 1.0325545e-38
-0.0011414201 0.40634555 1.302 1.1152782e-38
0.0019184391 0.40815616 1.3103335 1.0969112e-38
0.55367708 0.40570942 1.3167727 1.3736077e-38
0.57087749 0.40952736 1.3121722 1.3550967e-38
0.58774519 0.41180623 1.3074027 1.3274741e-38
0.60457915 0.41722751 1.3031112 1.327403e-38
-0.0021219717 0.4309817 1.3045001 1.0692165e-38
0.0017787566 0.42878288 1.3106365 1.0968033e-38
0.57574558 0.42603636 1.317 1.308891e-38
0.5899415 0.42983255 1.3125762 1.2813763e-38
0.60752302 0.4303593 1.3060766 1.2721214e-38
-0.0057505681 0.44777116 1.3107502 1.0600331e-38
0.0011523783 0.44251546 1.3145001 1.0600327e-38
0.59522927 0.44594589 1.3153335 1.2353149e-38
0.61070967 0.44973046 1.3085905 1.2260952e-38
0.62242913 0.45331988 1.3034286 1.1985079e-38
-0.0046007466 0.47962785 1.312 1.0140429e-38
0.61236537 0.47007352 1.3133457 1.2168395e-38
0.62364352 0.47083402 1.3060384 1.1799971e-38
-0.0069152657 0.48967162 1.3094324 1.0047517e-38
0.61283076 0.48917401 1.3125383 1.2168398e-38
0.62793267 0.490513 1.3071787 1.1892526e-38
-0.58897269 0.50907332 1.302 7.8380593e-39
-0.0095454389 0.50351107 1.307 9.9542456e-39
0.61668617 0.50241041 1.3148572 1.2260582e-38
0.62904608 0.50867462 1.3092839 1.1708492e-38
0.64132154 0.51254684 1.3057501 1.1523739e-38
0.62577689 0.52071106 1.317 1.1616293e-38
-0.62050641 -0.17477402 1.3380001 5.1661727e-39
-0.61080962 -0.16831806 1.3301667 1.6609521e-39
-0.5912289 -0.16821459 1.3297001 4.6169141e-40
-0.57082826 -0.16713561 1.3319334 3.6878112e-40
-0.55129123 -0.16756161 1.3313891 9.219563e-41
-0.52893043 -0.16838057 1.3286668 2.7550649e-40
-0.50728577 -0.16842455 1.3295001 1.8367099e-40
-0.49025705 -0.16683638 1.3300768 1.8367099e-40
-0.47053179 -0.16652574 1.3318126 1.8367099e-40
-0.45074177 -0.17125763 1.331 6.4284847e-40
-0.42995143 -0.16969961 1.3313001 1.1027434e-39
-0.4099766 -0.16961901 1.3318667 5.5137171e-40
-0.38887936 -0.17347156 1.3328637 7.361189e-40
-0.37003118 -0.17543393 1.3308932 1.2878493e-39
-0.35187298 -0.17411165 1.3252859 1.4718791e-39
-0.33609647 -0.17500195 1.322 0
-0.30509445 -0.17413275 1.322 6.4464354e-40
-0.297851 -0.17268404 1.322 1.840656e-39
0.073014058 -0.10636614 1.3220003 1.0597411e-38
0.089084879 -0.10283777 1.3220003 1.9263092e-38
0.073737398 -0.089890368 1.3247956 1.1704847e-38
0.08583013 -0.09009178 1.3235344 1.9171243e-38
0.073310055 -0.070016176 1.3333097 1.1243512e-38
0.089475811 -0.070134915 1.3275406 1.9262721e-38
0.10957293 -0.06583865 1.3239456 1.8893213e-38
0.12284905 -0.062583484 1.322 1.8985376e-38
0.070476212 -0.057749346 1.3322225 1.281048e-38
0.09150888 -0.051103503 1.3351012 1.9263071e-38
0.11034753 -0.050526042 1.3323423 1.8801374e-38
0.12539397 -0.048452426 1.3270695 2.0646376e-38
0.064513899 -0.03636238 1.3380001 1.4012997e-38
0.096966349 -0.037926357 1.3380002 1.8710248e-38
0.11308332 -0.032141231 1.3376157 1.9169804e-38
0.12829687 -0.02958758 1.3286875 2.0277969e-38
0.14188901 -0.024006892 1.322 2.0462366e-38
0.061563917 -0.0023205366 1.325 1.5300866e-38
0.11780071 -0.016254153 1.3380002 1.9078339e-38
0.13042681 -0.011018297 1.3347105 2.0370163e-38
0.14916846 -0.0092712818 1.3284853 2.0647113e-38
0.16493075 -0.0022143803 1.3240912 2.0647839e-38
0.059106618 0.0057947668 1.322 1.4472563e-38
0.061902437 0.0081770457 1.3322858 1.5026079e-38
0.1373255 0.0055509368 1.3373334 2.0462726e-38
0.15009268 0.010311769 1.3355002 2.0738589e-38
0.1689987 0.010945508 1.3282593 2.0738952e-38
0.18184112 0.01818499 1.3240001 2.046309e-38
0.058286764 0.036458459 1.3244001 1.4842429e-38
0.061731186 0.033789013 1.3286002 1.4841696e-38
0.15717933 0.023459602 1.3380001 2.0647114e-38
0.16982909 0.030460345 1.336055 2.0923335e-38
0.18919408 0.031350724 1.3287144 2.0370526e-38
0.20437455 0.033941027 1.3225458 1.9449287e-38
0.055743039 0.050055746 1.3276666 1.4657307e-38
0.062051781 0.042150572 1.3355 1.484169e-38
0.17103516 0.048532039 1.3379997 2.0093579e-38
0.1909346 0.050228305 1.3354372 2.0370166e-38
0.20883377 0.050801866 1.3247349 2.0277969e-38
0.22047758 0.05850932 1.3260001 1.9726596e-38
-0.72767776 0.074173018 1.3220003 9.123717e-39
-0.71855104 0.079967782 1.322 1.1525486e-38
0.055343837 0.069635682 1.3293103 1.447291e-38
0.19534507 0.067257747 1.3377824 2.0093586e-38
0.20988266 0.070430309 1.3366618 2.000103e-38
0.22940995 0.070285127 1.3289857 1.9817359e-38
0.24790141 0.073975399 1.3241664 1.9632242e-38
-0.7220279 0.086921506 1.322 1.1707718e-38
-0.71687061 0.085931405 1.3223752 1.1892115e-38
0.05475644 0.089231387 1.3308519 1.4196325e-38
0.21133669 0.085513107 1.3380004 1.9724445e-38
0.23102383 0.089713141 1.3352727 1.9632248e-38
0.25017411 0.090132631 1.3301187 1.9448218e-38
0.26362923 0.093956821 1.3230956 1.9356381e-38
0.050916329 0.11053956 1.3322941 1.4196319e-38
0.23499849 0.1078205 1.3373103 1.9263827e-38
0.2496974 0.1099677 1.3362833 1.88954e-38
0.26989815 0.10967235 1.3275497 1.8802487e-38
0.28614536 0.11389456 1.3226664 1.8618098e-38
0.04755374 0.13052543 1.3309374 1.4103408e-38
0.24788979 0.12159893 1.3380002 1.9448581e-38
0.27314597 0.12578329 1.336871 1.9079078e-38
0.29024652 0.1305562 1.3314593 1.9079437e-38
0.30600876 0.13320011 1.3232726 1.9264545e-38
0.044359595 0.15026404 1.3335884 1.3826828e-38
0.29384097 0.14965892 1.337167 1.8526631e-38
0.30991212 0.14959382 1.3276235 1.852591e-38
0.32388291 0.15164456 1.3220003 1.8250047e-38
0.037383787 0.17368583 1.3243001 1.3459116e-38
0.04309028 0.16886109 1.3326471 1.3551314e-38
0.29660758 0.16460821 1.3380001 1.8342249e-38
0.31103668 0.16889964 1.3336985 1.825005e-38
0.3279148 0.1712451 1.3237187 1.8065656e-38
0.037970036 0.18595867 1.3258334 1.3734978e-38
0.041054301 0.19510567 1.3380001 1.3458764e-38
0.31618065 0.18356104 1.3374447 1.8065295e-38
0.32974666 0.18978922 1.3323331 1.7789073e-38
0.34746027 0.19360976 1.3248258 1.7512844e-38
0.36043447 0.19702207 1.322 1.7328814e-38
0.035147198 0.20888123 1.3299999 1.3367649e-38
0.33197573 0.20558262 1.3372426 1.71437e-38
0.3503224 0.21003294 1.3315948 1.696003e-38
0.36896381 0.21104665 1.3223804 1.6682366e-38
0.38582611 0.21482787 1.3220004 1.7050795e-38
0.03144576 0.2305392 1.328154 1.3458767e-38
0.35428339 0.2285573 1.3379999 1.7512842e-38
0.36989212 0.2299425 1.330636 1.723662e-38
0.38984427 0.23067646 1.3224405 1.7051869e-38
0.40430915 0.23559871 1.3220003 1.6775282e-38
0.030913629 0.25174204 1.3323077 1.3274025e-38
0.35157415 0.25005803 1.3380003 1.723517e-38
0.37154692 0.24841069 1.3363999 1.6959673e-38
0.39141026 0.25020909 1.328572 1.6775282e-38
0.40854663 0.25100529 1.3224205 1.6590896e-38
0.029185025 0.26973969 1.3312333 1.2997794e-38
0.37667319 0.26670635 1.3379999 1.6590893e-38
0.39077696 0.26869935 1.3349853 1.6498698e-38
0.40966636 0.27001807 1.3275837 1.6314308e-38
0.42656848 0.27293238 1.3227997 1.6129555e-38
-0.52840203 0.2913202 1.3247057 4.7005156e-39
-0.51660347 0.2940844 1.322 3.7781893e-39
0.019702207 0.297851 1.322 1.2629003e-38
0.026133101 0.28910339 1.3317499 1.2629365e-38
0.39581558 0.28216687 1.3380002 1.6222831e-38
0.41163331 0.28893378 1.3324916 1.6037721e-38
0.42886087 0.29033846 1.3249998 1.5669659e-38
0.44243044 0.2940844 1.322 1.4932465e-38
-0.52805203 0.3093628 1.3279804 5.1611336e-39
-0.51328808 0.30960748 1.3235426 3.593082e-39
-0.2074526 0.31429717 1.3220004 3.4072446e-39
0.019280773 0.31091559 1.3220001 1.2168027e-38
0.024635486 0.31003264 1.3330001 1.2352417e-38
0.41371262 0.30609956 1.3358951 1.6406143e-38
0.43028682 0.31020024 1.3311321 1.585405e-38
0.44720691 0.31125748 1.3235846 1.585405e-38
-0.52571797 0.32707968 1.3350003 4.3302897e-39
-0.51014245 0.32991061 1.3301196 3.3161322e-39
-0.49248403 0.33206636 1.322947 3.6841902e-39
-0.21094337 0.33113742 1.3288798 3.2246512e-39
0.018519945 0.33055428 1.3251766 1.207583e-38
0.024218338 0.32883263 1.3334762 1.1983633e-38
0.41875386 0.32022354 1.3380001 1.5761502e-38
0.43409261 0.32761309 1.3341905 1.5393435e-38
0.44987959 0.32960594 1.3282707 1.5209043e-38
0.46647596 0.33284384 1.3224386 1.5024295e-38
-0.52197611 0.34251016 1.3380001 3.6838637e-39
-0.50884086 0.3476572 1.3358414 3.224654e-39
-0.49036902 0.35042241 1.3284894 3.8685745e-39
-0.47540075 0.35698637 1.32425 4.972034e-39
-0.22136009 0.35116285 1.322 3.5927051e-39
-0.21248838 0.34977451 1.3325936 3.3161308e-39
0.016179649 0.3514694 1.3297502 1.1891424e-38
0.02228662 0.34133717 1.3380001 1.1891792e-38
0.43775603 0.34538957 1.3376156 1.5117567e-38
0.45110634 0.34846315 1.3332087 1.4933175e-38
0.46993729 0.35059312 1.3281003 1.4748427e-38
0.48428053 0.35280842 1.3230586 1.4655875e-38
-0.701442 0.37769955 1.3380001 9.4972037e-39
-0.68907136 0.37566704 1.3342124 9.7734234e-39
-0.67097437 0.37665781 1.3283888 1.004929e-38
-0.65081185 0.37715119 1.3312972 1.0416988e-38
-0.63827193 0.37857237 1.3320001 1.0416989e-38
-0.52432209 0.37809056 1.3380001 7.4688914e-39
-0.50153279 0.36513191 1.3380002 4.3306344e-39
-0.48921654 0.37105459 1.3345941 6.2653035e-39
-0.47021556 0.37141302 1.3282549 7.8297313e-39
-0.45067683 0.3763347 1.3226669 8.4761882e-39
-0.43924332 0.37781879 1.322 8.3832709e-39
-0.21229948 0.37225729 1.3322349 3.7774733e-39
-0.19983003 0.37979391 1.3330001 5.2518887e-39
0.015276424 0.36972308 1.3320385 1.1614484e-38
0.45338264 0.3646093 1.3373104 1.4932102e-38
0.47140241 0.36955816 1.3354999 1.4564038e-38
0.48903656 0.36988515 1.3252988 1.4471844e-38
0.50534612 0.37403369 1.3230438 1.4195973e-38
0.52778739 0.37689164 1.3220001 1.4286377e-38
-0.70496094 0.39038906 1.3380003 6.7309732e-39
-0.68939751 0.3872458 1.3257904 7.3763412e-39
-0.66881132 0.38888517 1.3221874 8.0213533e-39
-0.6522882 0.38838348 1.3227056 8.7585484e-39
-0.63331002 0.38191283 1.3247694 1.0417708e-38
-0.52166504 0.38345504 1.3360001 7.0064923e-39
-0.5103693 0.38327613 1.3314373 5.1625671e-39
-0.48813742 0.38283297 1.3279614 9.0329731e-39
-0.47062176 0.38459104 1.3270909 1.1798473e-38
-0.45054981 0.38233504 1.3232002 1.2167262e-38
-0.43847069 0.38206828 1.322 1.0506658e-38
-0.20920132 0.38362539 1.3253123 4.7008701e-39
-0.1981312 0.38384718 1.3268335 5.2526047e-39
0.012012504 0.38951173 1.3287392 1.1338614e-38
0.47578487 0.38728556 1.3380001 1.3734998e-38
0.49119505 0.38975212 1.3336251 1.3734639e-38
0.5091241 0.38999343 1.3254787 1.3458056e-38
0.52976185 0.39128658 1.3249487 1.3274023e-38
0.54443562 0.39680114 1.3245715 1.2719419e-38
-0.64950216 0.4051705 1.3230001 5.0714477e-39
0.0085867681 0.41083267 1.3300296 1.1061669e-38
0.49526826 0.40485862 1.3380002 1.5209409e-38
0.50980186 0.40852982 1.3337377 1.4472203e-38
0.53057045 0.41033691 1.3320441 1.4379647e-38
0.54806745 0.41137487 1.3268545 1.4011229e-38
0.56466782 0.41657934 1.3220001 1.3918679e-38
0.0062898747 0.42963052 1.3319049 1.0968749e-38
0.53177553 0.42533267 1.3378276 1.3274383e-38
0.55054832 0.42979351 1.3321282 1.3181828e-38
0.56839681 0.43097353 1.3236613 1.3089275e-38
0.58295357 0.43924332 1.322 1.2721573e-38
-0.0042652753 0.45707762 1.3266668 1.0692167e-38
0.0047244704 0.44967121 1.3313915 1.0692168e-38
0.53018701 0.45394325 1.3380002 1.3274021e-38
0.55367446 0.44888338 1.3345323 1.2997443e-38
0.57111174 0.45074412 1.3294003 1.2813763e-38
0.58776325 0.45258427 1.3243997 1.2537539e-38
-0.0043386235 0.46619046 1.3337144 1.069216e-38
0.0027354923 0.46561432 1.3363335 1.041666e-38
0.55423307 0.46098113 1.3380001 1.2905606e-38
0.57333165 0.46782532 1.3335128 1.2537179e-38
0.5907684 0.46972218 1.3292469 1.2353144e-38
0.60478604 0.47271568 1.3235002 1.2352426e-38
0.57651335 0.48195225 1.335 1.1892177e-38
0.59217936 0.488603 1.3347692 1.2353144e-38
0.60535902 0.49070871 1.3300239 1.2168395e-38
-0.0020922525 0.50565541 1.3266002 9.7712864e-39
0.0022082259 0.50604665 1.3317778 9.6794537e-39
0.5980221 0.51038682 1.3351738 1.2168391e-38
0.60961151 0.51029009 1.3317941 1.2076198e-38
0.62225848 0.51554829 1.3255 1.1707774e-38
0.59821975 0.52197611 1.3380001 1.1984e-38
0.61139566 0.52346891 1.3338335 1.1707776e-38
0.62210476 0.52285367 1.3268336 1.1524103e-38
-0.62436557 -0.18161201 1.3540001 4.6387603e-40
-0.61757022 -0.18205914 1.3573335 1.8798699e-40
-0.47417322 -0.18228267 1.3590001 3.6734198e-40
-0.4503454 -0.18228267 1.3590001 1.3775324e-39
-0.42453194 -0.18267982 1.3590001 1.2860557e-39
-0.41006127 -0.18271071 1.3577502 6.442834e-40
-0.39159352 -0.18182409 1.3467501 7.3683636e-40
-0.62263298 -0.1787416 1.3502501 1.0166673e-39
-0.61030763 -0.17699228 1.3493848 7.3792377e-40
-0.58875293 -0.17567393 1.3516253 3.6913845e-40
-0.57156289 -0.17451906 1.3526667 3.6841818e-40
-0.54894018 -0.17338583 1.3500001 2.7586522e-40
-0.52787268 -0.17272253 1.3513001 2.7550649e-40
-0.50227714 -0.17506656 1.3523334 1.8367099e-40
-0.48908448 -0.17610686 1.3523667 3.6734198e-40
-0.47191912 -0.17552532 1.3488574 3.6734198e-40
-0.44799846 -0.17749195 1.3527224 9.1871369e-40
-0.43102378 -0.176717 1.3528261 8.2759566e-40
-0.41208452 -0.17683464 1.3505297 8.279544e-40
-0.39559409 -0.17778187 1.3430001 8.2867186e-40
0.076528616 -0.060045529 1.3430001 1.0874728e-38
0.074317977 -0.048639651 1.3466921 1.124279e-38
0.082611665 -0.046113402 1.3430003 1.8802826e-38
0.072627284 -0.029238962 1.3489659 1.1889605e-38
0.089290544 -0.02897422 1.3459997 1.8158167e-38
0.105405 -0.026583629 1.3429996 1.7695741e-38
0.07236059 -0.0099517545 1.3529059 1.2350229e-38
0.090073928 -0.0094704218 1.3520472 1.9447831e-38
0.10926729 -0.0090394262 1.3484772 1.806416e-38
0.12231868 -0.0030621968 1.3442 1.9725158e-38
0.067181155 0.0065213772 1.3521669 1.5117915e-38
0.093099326 0.0075252396 1.3585124 1.9448195e-38
0.11040483 0.0095039019 1.3542093 1.7972327e-38
0.12879756 0.010251102 1.347527 2.0278329e-38
0.14089113 0.016875543 1.3430002 2.1199919e-38
0.098885372 0.02025363 1.3590001 1.9540043e-38
0.11372358 0.026210586 1.3589997 1.8616627e-38
0.12938878 0.029685313 1.3541741 2.0093206e-38
0.14915246 0.030791514 1.3461146 2.0739307e-38
0.063082308 0.055527352 1.3528184 1.4657297e-38
0.11794761 0.042890042 1.3590001 1.7697186e-38
0.13161649 0.048680443 1.3578399 1.9909186e-38
0.15054312 0.049800523 1.3522784 1.990955e-38
0.16306481 0.055336077 1.3430002 2.0186855e-38
0.062631227 0.070143849 1.3508235 1.4380713e-38
0.13700986 0.060760893 1.3590001 2.027725e-38
0.15263946 0.06853652 1.3584123 2.0186133e-38
0.16943148 0.069996379 1.3506508 2.0186137e-38
0.18699248 0.071630619 1.3461151 2.0093945e-38
0.057690803 0.097721159 1.3430001 1.4564746e-38
0.061456338 0.090205744 1.3517145 1.4380719e-38
0.1576606 0.084985822 1.3590001 2.0186136e-38
0.1717841 0.088743851 1.3575459 2.0093579e-38
0.19062406 0.089941002 1.3535948 1.9909192e-38
0.20837307 0.094620369 1.3475455 1.9724805e-38
0.22252166 0.097721159 1.3430002 1.954006e-38
0.056481883 0.1101768 1.3466318 1.4104129e-38
0.061252173 0.10802549 1.3540001 1.4195968e-38
0.17804663 0.10391569 1.3590001 1.9632605e-38
0.19044591 0.10824004 1.3590004 1.9448928e-38
0.2108369 0.10938694 1.3545564 1.9263824e-38
0.22645986 0.11151923 1.347208 1.8988317e-38
0.25313312 0.1189137 1.3430002 1.8712452e-38
0.054534506 0.13059585 1.351037 1.4011569e-38
0.060760889 0.12390456 1.3590001 1.4196332e-38
0.19062239 0.12033039 1.3590001 2.1200655e-38
0.21377854 0.12798896 1.3580625 1.9909193e-38
0.22993742 0.13072869 1.3555562 1.9541131e-38
0.24955374 0.13066699 1.3467999 1.972408e-38
0.26671508 0.1321402 1.3437313 1.9539693e-38
0.2825672 0.1377515 1.3430001 1.9170185e-38
0.050902374 0.14992464 1.3501252 1.3734987e-38
0.23186427 0.14894772 1.358822 1.9079442e-38
0.25036672 0.14950578 1.3557397 1.8895406e-38
0.27036422 0.14962335 1.3475702 1.8802853e-38
0.28462759 0.15055534 1.3429998 1.8710297e-38
0.048957951 0.17107329 1.3493812 1.3642794e-38
0.23708659 0.16660647 1.3589997 1.8802858e-38
0.24904154 0.16946493 1.3590004 1.8711019e-38
0.27017006 0.17019698 1.357334 1.8526987e-38
0.28815126 0.1708204 1.3467143 1.8526629e-38
0.30297485 0.17699698 1.3430002 1.8157137e-38
0.045861736 0.1883895 1.3526334 1.3551318e-38
0.2513833 0.18228267 1.3590001 1.8343318e-38
0.27560821 0.18532734 1.3589998 1.8249684e-38
0.2903772 0.18963039 1.3533005 1.8157852e-38
0.30903676 0.19042134 1.3455821 1.7973819e-38
0.038590994 0.21317892 1.3455716 1.3551323e-38
0.043330725 0.20913248 1.3549999 1.3551677e-38
0.29455441 0.20711833 1.3588334 1.7697231e-38
0.31025669 0.20920366 1.3532807 1.7789069e-38
0.32746124 0.21355841 1.3454472 1.8157848e-38
0.340258 0.21781221 1.3430001 1.8528428e-38
0.037781641 0.22903985 1.3466877 1.3551328e-38
0.042832509 0.22962266 1.357125 1.3367659e-38
0.31271306 0.22807837 1.3588867 1.7880901e-38
0.32978404 0.23017128 1.3526967 1.7605039e-38
0.34620768 0.23102944 1.3436517 1.7604318e-38
0.037714887 0.2498765 1.3536669 1.336658e-38
0.04169865 0.2501919 1.3590001 1.3458424e-38
0.31707996 0.24491575 1.3590001 1.7696155e-38
0.33159712 0.24867325 1.3568033 1.7419928e-38
0.34866056 0.24977157 1.344485 1.71437e-38
0.36401936 0.25505972 1.3430003 1.7051138e-38
0.03706288 0.27172455 1.3547499 1.2998153e-38
0.04169865 0.26091442 1.3590001 1.3275473e-38
0.33616015 0.26555455 1.3589997 1.7235181e-38
0.35041723 0.2701284 1.3526323 1.6958955e-38
0.36809671 0.27020931 1.3443104 1.6775279e-38
0.38578272 0.27798858 1.3430002 1.6499051e-38
0.03430701 0.29065675 1.3490955 1.2629729e-38
0.35209024 0.28888026 1.3581513 1.6591242e-38
0.3699072 0.28983277 1.3516005 1.6590532e-38
0.38928467 0.29057649 1.3439232 1.6038797e-38
0.40457144 0.29419369 1.3430003 1.613063e-38
0.031874098 0.30962524 1.3506254 1.2444616e-38
0.35741699 0.30142167 1.3590001 1.6774906e-38
0.37046605 0.30859002 1.3575491 1.6406496e-38
0.38929734 0.3094458 1.3478626 1.6406136e-38
0.40730044 0.31244904 1.3437139 1.6037362e-38
-0.53073817 0.33700323 1.3456668 3.7789292e-39
0.030105699 0.32852861 1.3519001 1.1984713e-38
0.38906214 0.32979906 1.356095 1.5945885e-38
0.40918866 0.33052757 1.3485501 1.56693e-38
0.42582968 0.33200055 1.3433241 1.5485267e-38
-0.6516903 0.35860839 1.3590001 1.0417345e-38
-0.52802193 0.35063592 1.3463999 3.9633065e-39
-0.51639158 0.35556373 1.3430003 2.9480713e-39
-0.20603858 0.35909581 1.3430002 3.2239422e-39
0.024138816 0.35164464 1.3502311 1.1891429e-38
0.39301851 0.34907734 1.3590002 1.5485626e-38
0.41179818 0.34911406 1.3515241 1.5301235e-38
0.42872933 0.34939545 1.3431877 1.5209043e-38
0.4431932 0.35707748 1.3430002 1.5025015e-38
-0.74569488 0.37396446 1.3556668 8.8521958e-39
-0.72930735 0.37498689 1.3514999 9.2209741e-39
-0.70911449 0.37200576 1.3484167 9.7730619e-39
-0.68933243 0.36970934 1.3508497 1.0140763e-38
-0.6696679 0.37245321 1.3493332 1.0141126e-38
-0.65212125 0.37044394 1.3480668 1.0324791e-38
-0.52831352 0.36989671 1.351426 5.3469724e-39
-0.51142085 0.37150902 1.3466468 4.6075857e-39
-0.49802467 0.37557891 1.3430001 7.7425762e-39
-0.20606917 0.36811295 1.3484333 3.3175755e-39
0.022731237 0.36928713 1.3523334 1.1707042e-38
0.39355582 0.3625797 1.3590001 1.557745e-38
0.41634107 0.36380905 1.3569168 1.5116482e-38
0.43000817 0.3696233 1.351714 1.4840618e-38
0.44714445 0.37229162 1.3452396 1.4748065e-38
0.46472216 0.37658808 1.3430002 1.4656591e-38
-0.74527425 0.38622716 1.3545884 6.2703594e-39
-0.72912616 0.38836655 1.3503723 6.5469463e-39
-0.71240115 0.3871932 1.3436924 7.6532869e-39
-0.52157193 0.38028836 1.3430001 3.8725247e-39
-0.51215309 0.38028839 1.3430002 5.2554704e-39
0.016787291 0.39257658 1.3437501 1.1338622e-38
0.021351155 0.38899359 1.3527859 1.1430456e-38
0.43258825 0.38542265 1.3577036 1.419561e-38
0.45012879 0.38935655 1.3531476 1.4472199e-38
0.46679136 0.39074367 1.3452804 1.4472556e-38
0.48389634 0.39912617 1.3430002 1.5302667e-38
0.016236382 0.4095636 1.3509414 1.1061679e-38
0.02025363 0.4050726 1.3590001 1.1337902e-38
0.4556624 0.40764669 1.3577145 1.4472199e-38
0.47048596 0.40970191 1.3508999 1.4471838e-38
0.48852172 0.41206276 1.3456782 1.4195613e-38
0.50302845 0.41649228 1.3430002 1.3733926e-38
0.014139149 0.43171331 1.3545862 1.1153147e-38
0.47348487 0.4278686 1.3572929 1.4010867e-38
0.48923218 0.43051314 1.3511641 1.3735001e-38
0.50958633 0.42939577 1.3459591 1.3458771e-38
0.52809125 0.43370184 1.3433074 1.3366934e-38
0.54040974 0.43680179 1.3430002 1.3274744e-38
0.012706879 0.45037025 1.3546925 1.0785078e-38
0.47774738 0.44319707 1.3590001 1.3918673e-38
0.49173597 0.44545653 1.3568574 1.3550249e-38
0.5103274 0.4503215 1.3525903 1.3366934e-38
0.52895945 0.4489792 1.3448749 1.3366575e-38
0.54357654 0.45036173 1.3429999 1.3182184e-38
-0.0058868164 0.47447741 1.3430001 1.050849e-38
0.008078984 0.46949801 1.3522383 1.0692171e-38
0.51304269 0.46688741 1.3542225 1.3089989e-38
0.52898067 0.46840131 1.3486068 1.2905597e-38
0.54938841 0.47016051 1.3482617 1.281377e-38
0.56782699 0.47306532 1.3456665 1.2629376e-38
-0.0019768835 0.4943696 1.3523334 1.0231553e-38
0.0035719788 0.48764703 1.357125 1.0416298e-38
0.53568161 0.4898425 1.3586971 1.3089631e-38
0.55200028 0.48794973 1.3559449 1.2720854e-38
0.5696997 0.4905082 1.350125 1.2537179e-38
0.58369213 0.49404228 1.3433753 1.2629731e-38
-0.0011891983 0.50421351 1.3565001 1.0047879e-38
0.004241501 0.50579417 1.3543572 9.956049e-39
0.5385083 0.50157517 1.3590001 1.2629375e-38
0.55849737 0.50913131 1.3569168 1.2260588e-38
0.57021809 0.50959617 1.3529049 1.2352786e-38
0.58932436 0.51012707 1.3471094 1.2352784e-38
0.57118863 0.52528143 1.3568335 1.1984724e-38
0.58954954 0.52759689 1.3509181 1.1892527e-38
0.60472047 0.52971125 1.3446366 1.1708492e-38
-0.62830943 -0.18940412 1.3714737 5.5425838e-40
-0.61177045 -0.18439929 1.3690453 2.7730295e-40
-0.5895431 -0.18257362 1.3688571 2.7694142e-40
-0.56753397 -0.1828246 1.3735002 2.7622676e-40
-0.55234653 -0.18215361 1.3740001 1.8367099e-40
-0.53397352 -0.18273878 1.3738184 9.1835496e-41
-0.50773484 -0.18279368 1.3727778 1.8367099e-40
-0.48925433 -0.18502314 1.3734447 3.6734198e-40
-0.46493849 -0.1836403 1.3668749 6.4320721e-40
-0.44890469 -0.18564376 1.3661906 1.1938615e-39
-0.43288812 -0.18458325 1.3649999 1.2856969e-39
-0.41195449 -0.18680075 1.3671429 0
-0.5690099 -0.17848746 1.3664286 1.8402972e-40
-0.55121678 -0.17854577 1.3668749 2.7550649e-40
-0.52849066 -0.17776436 1.367 2.7550649e-40
-0.51470196 -0.17782962 1.3675001 1.8367099e-40
0.072995648 -0.0011966501 1.3650001 9.30956e-39
0.073488094 0.010345852 1.3681082 1.0692131e-38
0.085002758 0.012625463 1.367 1.8065258e-38
0.072258949 0.030116605 1.3736851 1.1705221e-38
0.089941032 0.030150592 1.3698758 1.871063e-38
0.10845287 0.031555004 1.3672999 1.7234756e-38
0.071311221 0.047819633 1.3733333 1.18907e-38
0.090207256 0.050117105 1.3756063 1.8618433e-38
0.10936197 0.05059154 1.3713737 1.7327683e-38
0.12402592 0.054977357 1.3669374 1.9724802e-38
0.092281446 0.063330397 1.3760003 1.8895736e-38
0.11034036 0.063223951 1.376 1.7235493e-38
0.13076858 0.069131576 1.3723773 1.990919e-38
0.14334194 0.071922451 1.3654165 2.0185054e-38
0.063942507 0.089837693 1.3704445 1.4288868e-38
0.13550696 0.085991487 1.3759999 1.9908462e-38
0.14913611 0.089711003 1.3718255 1.9909548e-38
0.16653453 0.096249245 1.3666668 2.0277606e-38
0.062965415 0.11830062 1.3723334 1.4288515e-38
0.1512462 0.10586662 1.3759998 1.9447853e-38
0.16939752 0.10991739 1.3729839 1.9909188e-38
0.18907072 0.11675886 1.365 2.0094661e-38
0.20303163 0.11767059 1.3650001 1.9540776e-38
0.05863585 0.13761474 1.365 1.4286357e-38
0.06313403 0.13287799 1.3716668 1.4011212e-38
0.17732871 0.12699094 1.3749412 1.9908832e-38
0.19093718 0.12956643 1.3683673 1.9816999e-38
0.20659508 0.13007501 1.3651565 1.9632609e-38
0.057380527 0.14901939 1.3676429 1.3734984e-38
0.062752686 0.14320739 1.3727144 1.3827542e-38
0.19572391 0.14716847 1.3747036 1.9264187e-38
0.2106784 0.14937702 1.3715415 1.9080153e-38
0.22422478 0.15492426 1.3659374 1.9263464e-38
0.054916441 0.16914861 1.3716668 1.3642439e-38
0.21307282 0.16586225 1.3758284 1.8803933e-38
0.2280274 0.17145373 1.3695503 1.8711737e-38
0.25799775 0.17255692 1.3649999 1.8618101e-38
0.26206633 0.17830084 1.365 1.8525188e-38
0.053013626 0.19280414 1.3703126 1.3551327e-38
0.21833909 0.18215029 1.376 1.9539337e-38
0.23143505 0.18705682 1.3745114 1.8618454e-38
0.24911575 0.19043474 1.3696511 1.824968e-38
0.26886857 0.19233885 1.3674072 1.8157482e-38
0.28121275 0.19744727 1.3650001 1.8064566e-38
0.049278982 0.21075302 1.3709412 1.3551683e-38
0.25121918 0.20703435 1.3759998 1.8526986e-38
0.27123234 0.20979454 1.371141 1.8434433e-38
0.28751245 0.21244842 1.3660979 1.8434427e-38
0.048307478 0.22648065 1.3717501 1.3367659e-38
0.27387804 0.22483262 1.3757499 1.8065655e-38
0.28982848 0.22964533 1.3716826 1.8065646e-38
0.30532393 0.23155847 1.3654691 1.7789069e-38
-0.68426991 0.25724205 1.3760002 5.0671233e-39
-0.67914313 0.25533211 1.3760002 5.3419305e-39
0.045497797 0.24892622 1.3701249 1.33673e-38
0.29281801 0.24604487 1.3759998 1.7697227e-38
0.30827823 0.25026011 1.3682053 1.7604682e-38
0.3240746 0.2564095 1.3649999 1.7420285e-38
-0.68252081 0.26659083 1.376 4.9749234e-39
-0.67666435 0.26786798 1.3701667 4.7916224e-39
0.039489448 0.27283621 1.365 1.3089631e-38
0.043162812 0.27095276 1.3675715 1.299851e-38
0.31160793 0.26732951 1.3726156 1.7420287e-38
0.32904807 0.27172068 1.3670003 1.7235893e-38
0.34104526 0.27163956 1.365 1.7142974e-38
0.038846981 0.29280359 1.3664286 1.2721918e-38
0.042695031 0.2884247 1.3740002 1.2721915e-38
0.31966773 0.28106636 1.376 1.5114321e-38
0.33273667 0.28961214 1.3719656 1.7051144e-38
0.34329781 0.29247537 1.3649999 1.7328087e-38
0.038429853 0.31084692 1.3726001 1.2536813e-38
0.042220265 0.30881107 1.376 1.2629008e-38
0.33651915 0.30745831 1.372963 1.6958947e-38
0.34956056 0.30992496 1.3657693 1.6590529e-38
0.36258498 0.31420612 1.365 1.6314662e-38
0.034296736 0.33210814 1.3725834 1.2076903e-38
0.33943042 0.32258177 1.3730001 1.6682717e-38
0.35106385 0.32968765 1.3706671 1.6222825e-38
0.36978319 0.33029267 1.3650692 1.5946245e-38
-0.66424334 0.35516179 1.3745002 1.0600659e-38
-0.65696669 0.35787138 1.3683336 1.0600653e-38
0.031742729 0.34867877 1.3726875 1.1983996e-38
0.35666725 0.34867236 1.374909 1.5946243e-38
0.37062842 0.34998 1.369392 1.5762212e-38
0.38483274 0.35099375 1.3651725 1.5670014e-38
0.4034307 0.35364997 1.365 1.539343e-38
-0.7472313 0.3678979 1.3692964 9.4961204e-39
-0.73068148 0.36726823 1.3696114 9.6805047e-39
-0.70894784 0.36493179 1.3709412 9.9563713e-39
-0.68957639 0.36472809 1.3695834 1.0324432e-38
-0.67064214 0.36571205 1.3706001 1.0508823e-38
-0.65775859 0.36258495 1.3650001 1.0508822e-38
0.028613672 0.37093669 1.3693333 1.1799597e-38
0.37476343 0.36760953 1.3754193 1.5024644e-38
0.38907793 0.36990997 1.3677876 1.4932449e-38
0.40865302 0.37025753 1.3658776 1.4748062e-38
0.42082191 0.37654588 1.365 1.4195606e-38
-0.74870408 0.39569229 1.365 5.6253459e-39
0.026475128 0.39059475 1.3689414 1.1338978e-38
0.39400041 0.38710335 1.3733156 1.5945884e-38
0.41055235 0.39011267 1.3723226 1.5393072e-38
0.4276002 0.39312893 1.3678225 1.5209405e-38
0.44335884 0.39788613 1.365 1.6131e-38
-0.74072635 0.40087774 1.365 5.7178849e-39
0.024215957 0.41020772 1.3710477 1.1246422e-38
0.41456282 0.40209779 1.3760002 1.493281e-38
0.43130177 0.40944541 1.3701836 1.4564033e-38
0.44591874 0.41065186 1.3660231 1.4472199e-38
0.021479594 0.4291949 1.3704374 1.1153503e-38
0.43542522 0.42655513 1.373 1.4288165e-38
0.44980282 0.42954412 1.3693519 1.4195614e-38
0.46574873 0.43249443 1.3650006 1.4102701e-38
0.017966188 0.44556475 1.36625 1.1061667e-38
0.020367891 0.44450217 1.3666668 1.1153146e-38
0.45303303 0.44817951 1.3733798 1.4011581e-38
0.47040054 0.45095283 1.3675146 1.3826832e-38
0.48934737 0.45485079 1.3650002 1.3642804e-38
0.50139636 0.45831695 1.365 1.345877e-38
0.013816925 0.47429317 1.3702501 1.0784364e-38
0.47357553 0.46899566 1.3729533 1.3550245e-38
0.49082369 0.47007647 1.3685219 1.3089984e-38
0.5067417 0.47347975 1.3651726 1.2721562e-38
0.0099483198 0.49233994 1.3688217 1.0508496e-38
0.47648591 0.48131102 1.3760002 1.4840978e-38
0.49338728 0.48711586 1.3738182 1.4195973e-38
0.5100559 0.49032554 1.3696622 1.355132e-38
0.52631783 0.49099082 1.3650008 1.3366933e-38
0.54866403 0.49720806 1.365 1.3643165e-38
0.012070664 0.50703007 1.3716061 1.014007e-38
0.020506987 0.50664318 1.376 1.0231913e-38
0.51200408 0.50558627 1.374 1.299744e-38
0.53107673 0.50977141 1.369772 1.2721212e-38
0.5511471 0.51021135 1.3677042 1.2537181e-38
0.56122887 0.51096952 1.365 1.2629012e-38
0.53344613 0.5267365 1.3757391 1.2444979e-38
0.55274916 0.52864635 1.3749998 1.2260952e-38
0.56688178 0.53362155 1.3705999 1.2168753e-38
0.58486271 0.53849244 1.3649999 1.2168042e-38
0.55610126 0.54283202 1.3760002 1.2352788e-38
0.5675382 0.54284209 1.3745002 1.2076557e-38
0.58490324 0.54166603 1.3700001 1.2075845e-38
-0.64097834 -0.19976954 1.3980001 1.1066951e-39
-0.62704343 -0.19645129 1.3906666 4.6134109e-40
-0.61020488 -0.19170149 1.3913602 3.6842098e-40
-0.59034044 -0.1889164 1.3910458 2.7694422e-40
-0.57039809 -0.18937363 1.3893335 2.7622395e-40
-0.54935139 -0.18944149 1.3915241 2.7550649e-40
-0.52866971 -0.18955882 1.3908712 2.7550649e-40
-0.51102018 -0.19123095 1.3893217 4.5917748e-40
-0.49598643 -0.189642 1.3866668 4.5953621e-40
0.075421311 0.057145357 1.3815455 9.3985144e-39
0.082083873 0.05738607 1.381 1.6958918e-38
0.11259293 0.059323158 1.381 1.8710982e-38
0.073307917 0.071032591 1.389587 1.0968379e-38
0.089271143 0.072078511 1.3869997 1.8249296e-38
0.10998894 0.072315529 1.3832227 1.7327693e-38
0.12378323 0.07630682 1.3816003 1.9448571e-38
0.073830441 0.090533964 1.3945949 1.0969455e-38
0.090466648 0.090475224 1.3945309 1.8249654e-38
0.10978482 0.090277247 1.3915461 1.7143662e-38
0.12704907 0.091067791 1.3828826 1.9631513e-38
0.069508366 0.10957303 1.3943216 1.4012287e-38
0.091607228 0.10587884 1.3976469 1.8341492e-38
0.11055545 0.10980316 1.3964263 1.7143306e-38
0.13017921 0.10952201 1.3894362 1.9263813e-38
0.14799367 0.11523233 1.3825189 2.0370163e-38
0.16413316 0.11881927 1.381 2.0738217e-38
0.068085715 0.12823129 1.3898126 1.392046e-38
0.11397892 0.12694967 1.3980002 1.8341136e-38
0.13036087 0.1293804 1.3980004 1.9263462e-38
0.14963615 0.13004591 1.3878056 1.9632602e-38
0.16824639 0.13164806 1.3814445 1.9632962e-38
0.18281218 0.13922784 1.381 1.9816636e-38
0.059452027 0.15773249 1.3840001 1.3827178e-38
0.065155186 0.14982103 1.3917 1.3736068e-38
0.13615079 0.14874084 1.3980004 1.9079794e-38
0.14988898 0.1492192 1.395125 1.9263822e-38
0.17009401 0.15045035 1.3854761 1.9448214e-38
0.18658297 0.15135641 1.3816526 1.9264545e-38
0.058755558 0.1714163 1.383182 1.3550964e-38
0.06286069 0.17218558 1.395 1.3920108e-38
0.13849054 0.16177656 1.3980001 1.8711014e-38
0.1452993 0.16245744 1.398 1.8987234e-38
0.17082401 0.16760375 1.3963399 1.8987963e-38
0.19047157 0.16981268 1.3884408 1.8987964e-38
0.20726664 0.17353898 1.3831182 1.9079084e-38
0.058359079 0.18840519 1.3827145 1.3643162e-38
0.062568285 0.18932493 1.3933334 1.3643161e-38
0.19392848 0.18943715 1.3966042 1.8987598e-38
0.20983259 0.18970659 1.3864492 1.8802853e-38
0.2271782 0.19634886 1.3812312 1.8526257e-38
0.26029548 0.19976164 1.381 1.7050411e-38
0.056514986 0.20991892 1.3887503 1.3551325e-38
0.061791193 0.21047035 1.39575 1.3735714e-38
0.19833969 0.20732731 1.398 1.843407e-38
0.21109587 0.20971616 1.3960865 1.871065e-38
0.22951065 0.21009055 1.386187 1.861954e-38
0.24632365 0.21397741 1.3812147 1.8066012e-38
0.26133317 0.21169546 1.3810003 1.861846e-38
-0.74735874 0.23637356 1.3980001 4.1469676e-39
-0.73033541 0.23483007 1.3941998 3.4104872e-39
-0.71541631 0.23611036 1.3926002 3.0402684e-39
0.052140877 0.23128097 1.3875717 1.3367656e-38
0.21876603 0.22366835 1.3980001 1.8251844e-38
0.23028421 0.22972637 1.395422 1.8158202e-38
0.24966894 0.2302178 1.3884999 1.824968e-38
0.26826224 0.23236649 1.383305 1.7973816e-38
-0.74743891 0.24625479 1.3975003 4.5157446e-39
-0.72935569 0.24951987 1.3928431 4.6079444e-39
-0.71141416 0.25109583 1.3904257 4.5161047e-39
-0.69322836 0.2542634 1.3851002 4.9759968e-39
0.050844584 0.2508688 1.3891251 1.3275459e-38
0.23618682 0.24564126 1.3980001 1.8065642e-38
0.25092515 0.25009003 1.3951668 1.7881617e-38
0.27079734 0.25008178 1.3864056 1.778978e-38
0.28778493 0.25196314 1.3810004 1.769723e-38
-0.72908998 0.26695773 1.3968463 5.0674862e-39
-0.70991158 0.27042732 1.3911107 5.0674764e-39
-0.69243085 0.26989326 1.3845681 4.9756437e-39
0.050035827 0.27007926 1.391917 1.2906675e-38
0.25320563 0.26726869 1.3956919 1.7235887e-38
0.2712909 0.26778442 1.3919108 1.7235891e-38
0.28992289 0.26961893 1.3853087 1.695966e-38
0.30652803 0.27640083 1.3820438 1.65898e-38
-0.70816803 0.28686625 1.3944826 5.4384071e-39
-0.69525796 0.29059923 1.3891431 4.9756423e-39
0.048020288 0.28906366 1.3901004 1.2721562e-38
0.29180017 0.28955185 1.3933886 1.8065286e-38
0.30964759 0.29023474 1.3851941 1.7513194e-38
0.32336605 0.29200375 1.3810004 1.7512485e-38
-0.70348293 0.3002671 1.3980001 6.5429386e-39
-0.69458306 0.30389756 1.3944001 5.7135605e-39
0.045184169 0.30865982 1.388412 1.2537175e-38
0.29353979 0.30536246 1.396435 1.7143335e-38
0.31014478 0.31062916 1.3913164 1.686747e-38
0.32817093 0.31159666 1.3819413 1.6775636e-38
-0.68755037 0.32232752 1.3980001 7.0035888e-39
0.037694037 0.33316666 1.3870001 1.2077256e-38
0.042021845 0.32989135 1.3914447 1.2260585e-38
0.31252757 0.32953092 1.3955848 1.6683079e-38
0.32980832 0.33036917 1.3853731 1.6407217e-38
0.34189513 0.33438888 1.3810002 1.6406498e-38
-0.76515919 0.35667959 1.3956003 9.4964764e-39
-0.75018728 0.35737017 1.3939089 9.6808676e-39
-0.73065692 0.35713437 1.3933446 9.7726975e-39
-0.70943886 0.35657156 1.3909999 1.0232237e-38
-0.69040293 0.35572171 1.3944165 1.0416987e-38
-0.67245805 0.35436776 1.387903 1.0416985e-38
0.036521282 0.35221583 1.3885835 1.1892516e-38
0.040622652 0.34943157 1.393625 1.1984719e-38
0.31905931 0.34275389 1.3980001 1.6590893e-38
0.3304494 0.35037696 1.3888681 1.6222464e-38
0.34740174 0.35050714 1.382556 1.6130272e-38
-0.76346207 0.36370477 1.386 9.3113719e-39
-0.75162989 0.36302564 1.3833482 9.6797886e-39
-0.72987622 0.36268088 1.3836403 9.7723416e-39
-0.71260232 0.36196634 1.3840002 9.9567273e-39
-0.69036883 0.36156273 1.3840003 1.0416988e-38
-0.67797893 0.36199233 1.381 1.0785409e-38
0.035168603 0.37066478 1.3906801 1.17996e-38
0.040444139 0.36277169 1.3980001 1.1984346e-38
0.33301726 0.36847118 1.3927315 1.5023921e-38
0.35023609 0.37026003 1.3871638 1.5024288e-38
0.36778751 0.37224808 1.3821356 1.4932451e-38
0.033680506 0.38952154 1.3894645 1.1523726e-38
0.33826005 0.38115537 1.3980001 1.6958953e-38
0.35372713 0.38886431 1.3971214 1.5761853e-38
0.37016815 0.38968292 1.3872143 1.5577462e-38
0.38644794 0.39314702 1.3810005 1.5484906e-38
0.030850617 0.40804586 1.3871819 1.1339337e-38
0.35786936 0.40076464 1.3980001 1.5393073e-38
0.37119678 0.40826595 1.393618 1.5117205e-38
0.38932824 0.41014177 1.3851916 1.5024649e-38
0.40937796 0.41154513 1.3837273 1.4747705e-38
0.42389739 0.41450018 1.3840003 1.4564397e-38
0.027691666 0.43077669 1.3895457 1.1154229e-38
0.37722352 0.42558658 1.3965002 1.5024296e-38
0.38997102 0.43039495 1.3922412 1.4840262e-38
0.41039589 0.42990965 1.388231 1.44722e-38
0.42815882 0.43147784 1.3838853 1.4379646e-38
0.018160149 0.4564251 1.381 1.12457e-38
0.026348846 0.44920936 1.3883575 1.1061315e-38
0.39621252 0.4441852 1.3980001 1.4564397e-38
0.41054958 0.44925356 1.3949502 1.4379281e-38
0.42987356 0.44967112 1.3885386 1.4379285e-38
0.44467244 0.45230603 1.3821114 1.4011942e-38
0.017789241 0.47097573 1.3862728 1.0784726e-38
0.023155205 0.47057629 1.396435 1.0692897e-38
0.41302049 0.46449485 1.3980001 1.3734635e-38
0.4308987 0.46962145 1.3955072 1.4103415e-38
0.44931823 0.47066528 1.3884475 1.3919384e-38
0.46436161 0.47207195 1.3825004 1.3551328e-38
0.017139336 0.49060312 1.3822862 1.0601057e-38
0.022344565 0.48974735 1.3925003 1.0509226e-38
0.43360302 0.48582968 1.39704 1.4010503e-38
0.45041305 0.48841953 1.3922259 1.401086e-38
0.46864125 0.49051008 1.3870002 1.3826831e-38
0.48665074 0.49354482 1.3835951 1.3642797e-38
0.017691661 0.51062834 1.3822001 1.0323741e-38
0.021900449 0.50357533 1.3875002 1.0416313e-38
0.45812184 0.50542921 1.398 1.3458418e-38
0.46997878 0.50969785 1.3919201 1.3274383e-38
0.49002302 0.50995886 1.3863945 1.3090349e-38
0.50774467 0.51299202 1.3822978 1.290596e-38
0.52491486 0.51834261 1.381 1.2629729e-38
0.013448065 0.5290491 1.3945003 9.955326e-39
0.47570014 0.52367282 1.3980001 1.3091066e-38
0.49095315 0.52733648 1.3938366 1.2905956e-38
0.51010412 0.52993077 1.3892833 1.2721928e-38
0.52783155 0.53208888 1.3840005 1.2537176e-38
0.54801893 0.53340751 1.3810004 1.2353142e-38
0.50980604 0.5457747 1.3941327 1.2536819e-38
0.52833652 0.5448209 1.3867716 1.2444981e-38
0.54702675 0.54397094 1.3816319 1.2444259e-38
0.56296462 0.54480445 1.381 1.2168751e-38
-0.64648032 -0.20148429 1.4100001 1.0145051e-39
-0.62660879 -0.2018232 1.4074286 4.6169421e-40
-0.60932893 -0.20105562 1.4070002 2.7730435e-40
-0.59247011 -0.20209673 1.4142859 2.7550649e-40
-0.57335144 -0.20219879 1.4150001 0
-0.64126766 -0.19816524 1.404 7.3756504e-40
-0.62157422 -0.19816524 1.404 0
-0.6092658 -0.19749387 1.4040003 4.6061942e-40
-0.59077722 -0.19752593 1.4072223 3.6805945e-40
-0.57009596 -0.19729543 1.4109498 2.7550649e-40
-0.5506041 -0.19787703 1.4092501 4.5917748e-40
-0.53541541 -0.19631898 1.404 6.4356594e-40
0.07631208 0.099698037 1.404 5.709585e-39
0.07593862 0.11001115 1.4046665 5.6224537e-39
0.088490739 0.11555313 1.4063331 1.7511733e-38
0.10298028 0.11857092 1.404 1.4840217e-38
0.074974567 0.13065323 1.4099566 7.7451308e-39
0.090140469 0.12992524 1.4118555 1.760429e-38
0.10807721 0.1327351 1.4058136 1.6222432e-38
0.12369941 0.13846949 1.404 1.8158191e-38
0.07114514 0.14863911 1.4121538 1.1432244e-38
0.09176816 0.14822392 1.4150007 1.7788684e-38
0.10848631 0.14936934 1.4120193 1.6867085e-38
0.12731816 0.15058587 1.4082092 1.8803203e-38
0.15139332 0.15877835 1.404 1.8987964e-38
0.066574633 0.16810267 1.4099287 1.382791e-38
0.095517218 0.16126284 1.4150002 1.7882679e-38
0.10928259 0.16474415 1.4150006 1.695892e-38
0.13016376 0.16966036 1.4100003 1.8526259e-38
0.15093455 0.17104876 1.4047635 1.9079075e-38
0.16585572 0.17585628 1.4039999 1.9171275e-38
0.06523452 0.18954936 1.4040002 1.3827199e-38
0.13645317 0.18359154 1.4150001 1.8618094e-38
0.15203141 0.18703113 1.4128504 1.8710654e-38
0.16985555 0.19016492 1.4068034 1.9079435e-38
0.18430196 0.19063462 1.4042141 1.9079072e-38
-0.73250544 0.21584411 1.4150001 1.1981676e-39
-0.71823984 0.21956556 1.4150001 5.2572585e-39
0.06277284 0.21785867 1.404 1.36446e-38
0.17339292 0.2071704 1.4145594 1.8433704e-38
0.1889399 0.21038525 1.4080538 1.871029e-38
0.20308861 0.21785867 1.404 1.8526257e-38
-0.7685045 0.2314754 1.4104617 3.3182958e-39
-0.74961394 0.22871791 1.4087105 2.2126699e-39
-0.72898358 0.22748294 1.409 1.7502638e-39
-0.71549541 0.23129742 1.4097778 3.6863692e-39
0.05690746 0.2326833 1.4083637 1.3459127e-38
0.062857039 0.230266 1.4113501 1.3459852e-38
0.19658726 0.22847651 1.4135913 1.8342951e-38
0.20927244 0.23001544 1.4072999 1.8250756e-38
0.22032036 0.2338596 1.404 1.7974539e-38
-0.76957297 0.25040182 1.4118751 4.6079374e-39
-0.75239486 0.25349441 1.4039998 4.7001288e-39
0.056808542 0.2494486 1.4086249 1.318326e-38
0.06161068 0.24644271 1.4150002 1.3274747e-38
0.19723687 0.24189425 1.4150002 1.8525899e-38
0.21063626 0.2492213 1.4101171 1.8066365e-38
0.22805549 0.25163144 1.4041013 1.7974528e-38
0.24124464 0.25970724 1.404 1.797274e-38
-0.76859897 0.27193609 1.4140413 5.4388009e-39
-0.75052154 0.27077639 1.4097072 4.8841782e-39
-0.73434782 0.27409047 1.4049231 4.791628e-39
0.055545595 0.27031142 1.408 1.2905952e-38
0.21591288 0.26501712 1.4134377 1.8341149e-38
0.23047005 0.27048358 1.4107362 1.7604671e-38
0.24593075 0.27213049 1.4049999 1.7604311e-38
0.27031139 0.27845386 1.4040002 1.5762192e-38
-0.77083635 0.28208593 1.4150001 6.9153701e-39
-0.74845254 0.28683838 1.4144742 5.8986776e-39
-0.73079586 0.29061583 1.411163 5.8983133e-39
-0.71450263 0.29632473 1.4040002 6.2660112e-39
0.054003224 0.29087201 1.4086366 1.2721203e-38
0.2381728 0.28283018 1.4150001 1.7880901e-38
0.25090271 0.29003966 1.4118067 1.806457e-38
0.27095053 0.29011655 1.4068003 1.8065643e-38
0.28383172 0.29285789 1.404 1.8341513e-38
-0.72826958 0.30979729 1.414546 6.0830647e-39
-0.70999694 0.3106373 1.4074283 6.0816157e-39
0.051257942 0.31007987 1.4122001 1.2445693e-38
0.25339642 0.30687559 1.4124875 1.7419922e-38
0.27133122 0.30964643 1.4095155 1.7327365e-38
0.2878935 0.3123872 1.4039997 1.6960026e-38
-0.72320181 0.32270288 1.4150002 6.5425981e-39
-0.70893043 0.32815874 1.4125386 6.3574893e-39
-0.69269186 0.33296216 1.4079309 6.357132e-39
0.049248584 0.32971448 1.4113001 1.2260588e-38
0.25926101 0.32624713 1.4150001 1.7143693e-38
0.27189606 0.32785898 1.4132329 1.6959666e-38
0.29021338 0.33057842 1.4081798 1.6775633e-38
0.3038924 0.3337388 1.4053332 1.6683431e-38
-0.78026402 0.3485758 1.4150001 9.8627422e-39
-0.76844138 0.35043037 1.4111625 9.5883133e-39
-0.74955374 0.35034937 1.4101282 9.8645358e-39
-0.72973055 0.35024863 1.4094651 1.0140402e-38
-0.7089178 0.34730434 1.4109576 9.6797858e-39
-0.69101954 0.34738657 1.4073427 8.6663542e-39
-0.67819285 0.34709686 1.404 8.4823188e-39
0.045129512 0.35053977 1.4116002 1.1984719e-38
0.27766153 0.34671509 1.4150002 1.6959663e-38
0.29018885 0.34924605 1.4110173 1.6682716e-38
0.30926555 0.35080588 1.4051429 1.6498329e-38
0.32289037 0.35160992 1.4040002 1.6406501e-38
0.03815604 0.3729445 1.404 1.2076539e-38
0.043311659 0.36965773 1.4114375 1.1892153e-38
0.29470339 0.36328438 1.4150003 1.4011564e-38
0.31110013 0.36902386 1.4112504 1.5484896e-38
